ply
format ascii 1.0 
element vertex 1125
property float x
property float y
property float z
property uchar red
property uchar green
property uchar blue
end_header
 0.157044 -0.782878  0.181583 221 221 219
 0.194684 -0.546006  0.174802 223 225 222
0.0929033 -0.555854  0.251655 211 210 206
 0.265875 -0.590985 0.0234754 197 202 196
 0.264511 -0.593955 0.0243453 169 174 170
 0.174128 -0.548643  0.194916 246 246 248
0.0792592 -0.541229  0.262445 232 231 227
-0.0768268  -0.578554   0.204624 156 151 155
-0.0384519  -0.585961    0.17239 129 118 124
0.0718088 -0.624148 0.0329898 190 189 185
 0.162582 -0.704798  0.159457 212 219 212
-0.00377661   -0.692166    0.121733 206 171 178
 0.194844 -0.664398 0.0670339 183 192 187
 0.171681 -0.717751  0.152875 221 223 220
 0.186362 -0.727113  0.104101 182 202 191
0.0631883 -0.535038  0.274759 218 218 210
 0.227067 -0.623358 0.0396473 168 180 178
 0.127614 -0.759694  0.223731 173 170 163
0.0200565 -0.771677  0.194858 185 180 177
0.0572926 -0.628985 0.0485378 167 173 173
0.0329388 -0.537676  0.310544 213 205 202
0.0395697 -0.513911  0.277361 244 244 244
0.0283864 -0.569331  0.125122 167 161 165
  0.10499 -0.677704  0.176418 200 205 198
  0.12921 -0.571338  0.186039 172 176 177
-0.0820798  -0.618588   0.184159 166 153 160
 0.192444 -0.728697 0.0640791 182 194 190
0.0497417  -0.78312  0.230732 185 124 132
-0.0938419  -0.658389   0.102783 145 149 148
-0.0334845  -0.628381   0.134815 174 179 173
 0.095797 -0.734976   0.22026 221 223 222
0.0404795 -0.657096  0.102548 163 170 163
0.0897109 -0.525381  0.262118 250 249 247
 0.172964 -0.665616 0.0783107 182 184 181
0.000411506   -0.649803    0.119267 179 183 182
-0.00747944   -0.601024    0.150219 172 175 168
0.0331787 -0.568623  0.139582 153 157 156
 0.157377 -0.725268  0.175573 209 213 212
 0.051116 -0.671176  0.135832 131 132 134
0.104903 -0.68489  0.18245 190 192 187
0.0935114 -0.736648   0.22564 222 224 221
0.00411642  -0.771917   0.179409 155 163 152
0.0302547 -0.529869  0.302868 219 213 213
 0.187824 -0.779843  0.164702 232 236 235
0.146298  -0.7241 0.196195 196 198 193
0.0152494 -0.756711  0.181818 204 204 194
0.0365624 -0.568202  0.112667 171 168 163
0.0919981 -0.506182  0.230044 129 104 99
-0.0596107  -0.619449   0.170547 139 138 134
0.0072017 -0.661102  0.122415 170 175 171
 0.170395 -0.814216  0.220216 214 203 201
0.0266254 -0.541057  0.316867 211 207 204
0.0178524 -0.527159  0.310288 232 228 225
0.00305316  -0.657403   0.124249 187 184 177
0.0437673 -0.567482  0.103291 148 141 135
 0.163563 -0.676405 0.0826489 163 165 164
0.0836708 -0.618243 0.0215444 172 176 179
0.0929783 -0.545882  0.248853 234 233 231
0.0247923 -0.563816  0.129635 117 101 104
0.00398484  -0.603969   0.130248 173 175 170
 0.275843 -0.584332 0.0154968 154 160 158
 0.136319 -0.743679  0.213497 203 203 195
-0.0526849   -0.59351   0.211394 173 174 178
 0.147675 -0.685718  0.153985 151 145 145
-0.0349207  -0.609014   0.142872 159 153 155
0.0838342 -0.681528  0.179547 185 189 192
  0.17406 -0.768154  0.168432 238 240 239
 0.185423 -0.764932  0.154469 224 237 230
 0.120885 -0.695361  0.191271 172 174 169
 0.030359 -0.520382  0.305179 231 227 224
 0.241548 -0.612398  0.046953 159 171 169
 0.255422 -0.588475 0.0298543 180 177 172
 0.267496 -0.597975 0.0123113 150 152 147
-0.0336161  -0.620855    0.12526 151 137 137
  0.178266  -0.582538 0.00223332 186 192 180
  0.132005  -0.591492 -0.0179368 138 140 137
 0.223339 -0.625856 0.0584469 218 224 220
-0.0412222   -0.59402   0.155107 151 146 143
 0.177974 -0.722706  0.134682 194 205 199
 0.121333 -0.549121   0.21351 233 232 230
 0.042535 -0.572891 0.0988478 168 170 165
 0.0915909  -0.597771 -0.0135529 172 171 166
 0.117397 -0.732702   0.22336 209 206 201
-0.0446129  -0.646936   0.119121 170 170 168
  0.10146 -0.678196  0.175398 178 182 181
 0.18489 -0.73209 0.119207 222 224 219
 0.148617 -0.596692 -0.021303 150 157 150
0.0668276 -0.572381  0.265925 174 174 176
-0.0079054  -0.618761   0.132427 169 174 167
0.0212235 -0.516907  0.305702 228 224 223
 0.123141 -0.807776  0.244649 227 229 224
  0.15662 -0.804516  0.206683 196 186 184
 0.133967 -0.760974  0.182984 213 218 214
0.0705843  -0.61195 0.0414711 169 179 178
0.0808323 -0.732824   0.21491 221 221 221
0.0338792 -0.551061  0.294534 219 216 207
 0.155123 -0.725113  0.181176 213 214 209
 0.102096 -0.752576  0.229288 232 234 231
 0.182995 -0.722839  0.112644 182 198 187
0.0824571 -0.727311  0.213492 214 213 208
0.0196933 -0.775483  0.196838 175 180 173
0.0152552   -0.5698  0.142809 146 140 140
0.0643121  -0.57317  0.268846 175 175 173
 0.244561 -0.577024 0.0299554 196 206 198
 0.184553 -0.797688  0.182305 227 232 228
 0.171905 -0.714365  0.154113 212 218 214
 0.197433 -0.615224  0.045019 142 147 141
0.0615184 -0.610554 0.0608201 176 184 187
0.00526522  -0.575416   0.146056 126 129 122
-0.00923072   -0.786347     0.18049 167 169 164
0.0394282 -0.538808  0.297692 210 207 200
0.0220367 -0.522905  0.313646 237 236 234
  0.256982  -0.581226 0.00151986 191 192 184
0.0614901 -0.675703  0.155653 163 160 167
 0.217925 -0.561495 0.0242605 166 174 163
0.0868625 -0.658126  0.150414 184 186 183
0.00949556  -0.625297  0.0997383 193 189 186
  0.06641 -0.582579 0.0689665 150 147 154
0.0770925 -0.543008  0.274163 235 231 230
0.0555656  -0.64633 0.0250307 123 124 128
  0.14477 -0.684512  0.158562 176 184 173
 0.185629 -0.781832  0.169556 236 238 233
 0.188991 -0.803434  0.183102 208 210 205
 0.164737 -0.673763 0.0803383 162 167 160
0.0944688 -0.740542  0.222542 218 220 219
  0.184482  -0.573152 0.00400648 158 158 148
 0.183943 -0.762498  0.101004 167 176 173
 0.133481 -0.694665  0.180784 200 195 191
0.0670212 -0.628895 0.0374738 160 161 156
0.0835854 -0.658057  0.144472 184 186 183
 0.123552 -0.794975  0.243747 227 230 223
0.0330028 -0.625748 0.0687671 212 214 213
  0.08402 -0.797352  0.242942 231 234 227
 0.014442 -0.615627 0.0947124 195 197 194
0.153348 -0.66788 0.135389 177 187 179
   0.210446   -0.528943 -0.00152483 148 142 128
0.0595197 -0.708712   0.19448 204 206 203
 0.102545 -0.695383  0.196109 177 176 174
0.00344996  -0.599913   0.133368 171 181 173
0.00467038  -0.526785    0.30822 213 210 205
 0.101433 -0.736928  0.225336 213 217 216
 0.156986 -0.758212  0.179721 239 240 242
 0.163768 -0.727261  0.173696 218 222 221
0.183138 -0.74973 0.144204 223 229 227
  0.176366  -0.585083 0.00475478 149 154 147
0.0952174 -0.739548  0.219144 225 226 221
 0.191006 -0.559202  0.159668 182 178 179
 0.166397 -0.565751 0.0105043 174 186 172
 0.217603 -0.566004 0.0243205 163 163 161
 0.212833 -0.511163  0.122932 117 109 88
 0.127758 -0.788083  0.239434 208 197 193
-0.0469588  -0.618426   0.168253 133 132 137
  0.107951  -0.598367 -0.0155835 168 174 170
 0.105517 -0.550774  0.239085 253 252 250
0.105339 -0.55081 0.238796 253 252 250
  0.18504 -0.758605  0.150416 209 215 211
 0.182516 -0.791756  0.180482 234 240 236
 0.239621 -0.614176 0.0316868 218 223 217
0.0930323  -0.65853  0.153162 192 191 189
 0.174025 -0.661788 0.0774589 187 189 184
 0.236422 -0.628017 0.0297177 200 206 204
 0.142663 -0.783291  0.227446 172 178 176
 0.202549 -0.804429  0.145491 211 216 210
  0.11397 -0.792477  0.244726 212 207 203
 0.201927 -0.625061 0.0602912 174 190 180
  0.181258  -0.584979 0.00463085 155 153 156
  0.18767 -0.560221  0.148427 220 222 219
 0.154683 -0.674157  0.138952 179 180 174
 0.185843 -0.769223  0.159191 202 211 208
 0.171093 -0.730306  0.159505 221 225 226
-0.0932499  -0.634459    0.13612 144 153 150
 0.239426 -0.601946 0.0381851 181 193 173
0.0892188 -0.725174  0.220083 220 222 219
 0.163739 -0.670437 0.0787672 192 197 190
-0.0733127  -0.618444   0.176244 122 109 119
-0.0734487  -0.618399   0.176192 122 109 119
0.068914 -0.54601 0.282294 212 208 205
 0.200732 -0.796146  0.150806 184 185 190
 0.239426 -0.578468 0.0327525 184 195 181
 0.146868 -0.802093  0.238796 176 181 174
 0.163715 -0.809088   0.20867 222 224 219
-0.0531324  -0.634248   0.140972 166 158 156
 0.173722 -0.759412  0.172242 232 232 232
0.0447235 -0.805002  0.228468 181 136 133
-0.0877525  -0.503078   0.282076 74 75 69
 0.214779  -0.59828 0.0420727 107 120 113
  0.204809  -0.527014 -0.0099994 134 134 124
0.0709568 -0.695985  0.189569 181 190 187
 0.193459 -0.704399 0.0739278 230 235 229
0.0859145 -0.784194  0.239246 210 211 203
 0.0752952  -0.628798 0.00508365 155 157 152
0.0304741 -0.652165  0.100287 182 183 185
 0.234471 -0.510962  0.138413 145 142 123
 0.138648 -0.721575   0.20384 192 194 183
 0.121388 -0.804154  0.244929 213 210 205
0.176249 -0.54944 0.191213 236 237 239
 0.202833 -0.552777  0.156489 215 217 214
 0.244696 -0.594579 0.0347367 208 218 209
0.0820203 -0.585906 -0.965089 113 111 114
0.00858303  -0.637921    0.10774 187 189 184
  0.14668 -0.686844  0.164127 152 154 153
0.024322  -0.6646 0.120408 175 174 172
0.0629396 -0.772964   0.22855 205 215 207
 0.087007 -0.600074  0.028501 174 174 176
0.112353 -0.54065 0.225378 246 245 243
0.0240865 -0.566246   0.13444 175 171 172
0.00654258  -0.548888    0.30372 230 230 230
 0.171188 -0.523294  -0.02869 71 50 47
-0.0394167  -0.652217   0.113354 134 125 128
 0.180019 -0.759352  0.161153 220 224 225
 0.161751 -0.673767 0.0814325 186 193 186
0.112322 -0.53251 0.241415 239 238 234
-0.0341896  -0.596457   0.135237 133 119 119
0.0215087 -0.550567  0.311642 240 240 240
 0.230891 -0.513254  0.138097 118 106 84
-0.0133985  -0.588222    0.14973 151 149 154
0.0923874 -0.705666  0.204808 203 207 208
 0.159731 -0.796232  0.190602 193 190 183
  0.147773  -0.591127 -0.0187932 154 160 156
 0.114102 -0.540624  0.223928 249 245 244
0.00702204  -0.599983   0.129831 165 167 166
0.0909288 -0.665888  0.160725 194 188 192
  0.13874 -0.801191  0.241939 215 208 198
  0.18082 -0.683642 0.0833533 208 214 214
0.0339879  -0.56392  0.116015 161 156 153
0.0193321 -0.569156  0.134412 155 150 156
0.0300037 -0.635883 0.0750321 203 202 198
 0.295381 -0.513937  0.107182 115 112 95
 0.107125 -0.557071   0.23302 216 218 217
 0.255941 -0.577447 0.0117976 199 205 193
0.0520831 -0.743965  0.207936 182 188 178
 0.227648 -0.633389 0.0347633 171 182 178
0.0550154 -0.519674  0.268384 245 244 240
 0.133741 -0.712311  0.200022 188 191 182
 0.0839409  -0.621976 0.00802295 133 133 135
0.0238864 -0.813805  0.215488 204 207 200
 0.255906 -0.585437 0.0237415 205 210 203
 0.213557 -0.557105 0.0240169 172 181 178
0.119318  -0.7248 0.218199 182 182 172
 0.183013 -0.722216 0.0990687 175 184 181
   0.271453   -0.539627 -0.00363059 204 204 196
 0.128544 -0.700182  0.193814 189 192 183
 0.170081 -0.709217  0.151001 206 215 212
0.0197188 -0.647695  0.105704 213 213 211
 0.113698 -0.789323  0.243798 199 201 190
  0.288987   -0.57931 -0.0158328 103 101 104
0.0400423 -0.524677  0.292986 245 243 244
 0.164896 -0.711723  0.160104 214 223 222
 0.145103 -0.547716  0.208386 229 229 229
 0.242329 -0.581013 0.0341663 220 222 217
-0.0646171  -0.665045   0.104711 135 130 127
0.198747 -0.79912 0.160693 208 209 204
0.0775005 -0.596921 0.0482337 155 160 156
0.0930362 -0.534137  0.241176 251 250 246
 0.189552  -0.71789 0.0723593 201 207 203
0.0806267 -0.700922  0.200371 200 202 197
 0.185718 -0.577059   0.16161 188 186 187
 0.156994 -0.796478  0.196312 229 231 228
 0.120203 -0.745687  0.228202 213 213 205
0.0789222 -0.568616  0.244334 168 161 168
 0.267133 -0.576115   0.01088 191 196 192
0.0446782 -0.655789 0.0999392 166 160 164
-0.0313966  -0.642503   0.120565 173 169 166
-0.0552352  -0.589427   0.211574 156 155 161
 0.104573 -0.698572  0.200082 181 178 169
   0.154361   -0.588435 -0.00339615 144 155 159
0.0636583 -0.606286 0.0602118 199 198 196
  0.108384  -0.593677 -0.0251177 164 173 172
0.0394231 -0.525828  0.296084 253 252 250
0.0233383 -0.602722  0.114709 175 184 181
 0.182591 -0.716413  0.104999 186 197 191
0.0953195 -0.706918  0.205742 213 214 209
0.0928392 -0.637895 -0.027352 108 107 102
0.00584625  -0.755774   0.172959 164 156 154
0.0322084 -0.780267  0.211043 187 190 179
0.0545312 -0.529978  0.274003 249 248 244
 0.190854 -0.747132 0.0832012 175 180 174
0.0621719 -0.653848  0.102646 171 175 174
 0.179827 -0.761532  0.164115 237 239 238
0.0886382 -0.691647   0.19515 202 204 201
-0.0280891  -0.625569   0.125193 160 149 147
0.0766986 -0.775851  0.237449 214 220 216
 0.165024 -0.716306  0.163582 199 210 206
  0.168453  -0.592677 -0.0107959 149 161 151
 0.184387 -0.737737    0.1351 188 197 192
  0.254632  -0.522945 0.00113935 106 98 75
 0.120542 -0.690738  0.185007 200 202 199
 0.171526 -0.754336  0.168073 224 230 228
0.0359525 -0.661835  0.112936 177 182 178
0.0732369 -0.744373  0.220945 223 228 222
 0.214666 -0.827444 0.0796869 168 166 167
0.0246989 -0.595722   0.11126 184 195 191
-0.022944 -0.642514   0.11922 186 184 185
0.0524974 -0.573143  0.280936 220 222 217
 0.0915746  -0.636065 -0.0205749 131 134 139
0.0958192 -0.563089   0.21398 168 162 162
 0.162791 -0.724534  0.172745 212 218 216
 0.110792 -0.667185  0.159923 182 177 174
 0.113414 -0.650185  0.141431 181 180 176
0.0562582 -0.746507  0.214117 202 192 191
 0.145019 -0.737869  0.199518 219 221 218
 0.116308 -0.722122  0.217485 202 198 189
 0.151864 -0.787807   0.21811 178 181 172
 0.171573 -0.693767 0.0849034 155 165 156
 0.153597 -0.685988  0.153572 199 197 198
0.208889 -0.82713 0.151143 182 178 169
  0.09859 -0.562261   0.20939 164 151 145
0.0850298 -0.787133  0.238393 211 212 204
 0.119031 -0.787019  0.240447 222 227 223
 0.157449 -0.800585  0.197349 206 208 203
  0.15621 -0.676502 0.0811788 124 125 117
0.0206086 -0.586713  0.124934 177 180 173
0.00339946  -0.646979   0.118213 203 199 196
 0.262873 -0.573279 0.0116148 195 195 187
0.0229808 -0.593017   0.12021 166 172 162
 0.157538 -0.805626  0.218993 217 225 214
 0.199934 -0.553391  0.168328 224 228 227
0.0539197 -0.553044  0.281032 221 217 216
0.0332637 -0.515387  0.292382 234 232 233
  0.131473  -0.588155 -0.0102731 157 161 164
-0.0404649  -0.655126   0.112775 169 171 170
0.177046 -0.70636 0.109906 177 189 187
0.0451961 -0.553385  0.285726 227 226 224
 0.253687 -0.609379 0.0217051 173 179 175
 0.271966 -0.546464 0.0154223 192 192 182
  0.173174  -0.596923 -0.0114858 103 110 102
  0.11748 -0.542255  0.219924 247 247 245
-0.0263716  -0.580254   0.203072 158 153 150
0.0216255 -0.607135 0.0916135 193 195 194
-0.0860311  -0.645659   0.116074 116 120 121
0.0721085 -0.732422  0.215105 194 203 198
0.0480075 -0.574573 0.0862924 159 151 148
 0.274827 -0.582103 0.0142347 187 192 186
 0.160879 -0.677876  0.126351 194 205 199
0.00496394  -0.650759   0.120982 202 200 201
 0.158739 -0.678529  0.082266 176 183 175
 0.104474 -0.671893  0.169802 182 181 176
 0.126713 -0.694677  0.185786 192 192 182
-0.0127836  -0.598251   0.145291 167 170 175
 0.144626 -0.741485  0.201329 207 211 210
  0.213195  -0.540653 0.00853105 184 177 171
 0.040915 -0.565605  0.108833 151 150 146
 0.171017 -0.718377  0.156756 205 212 204
 0.203104 -0.557202  0.150243 164 165 160
 0.270673 -0.563677 0.0153449 193 194 186
  0.15129 -0.772821  0.215782 187 198 194
-0.0408397  -0.583444   0.219005 138 137 143
 0.257925 -0.584791 0.0238439 204 210 200
0.0266095 -0.784077  0.207015 204 209 202
0.0336822 -0.818971  0.222835 237 242 238
   0.210081   -0.519593 -0.00226529 123 107 84
-0.0354194  -0.612555   0.140352 169 161 159
 0.180147 -0.708155 0.0806086 228 237 234
-0.0926703  -0.642147   0.118158 123 121 124
0.0499078 -0.669297  0.129565 167 165 166
 0.097185 -0.561104  0.214504 199 201 196
0.0596163 -0.722709  0.203557 199 204 200
-0.0231129  -0.579578   0.214746 132 133 128
 0.188802 -0.571652   0.16248 218 219 214
0.00374812  -0.557729   0.294867 196 198 197
  0.284303    -0.5708 0.00931879 196 196 184
 0.145796 -0.753409  0.189597 222 224 223
0.0375908 -0.513648   0.27958 235 231 228
-0.0599193  -0.638618   0.131368 165 150 157
 0.017471 -0.530336  0.318891 214 214 212
  0.268511  -0.594095 0.00987101 185 184 180
0.0426237    -0.528  0.288261 251 250 248
 0.055517 -0.636148 0.0408598 160 158 161
 0.252156 -0.590619 0.0308568 166 169 162
 0.188748 -0.735458 0.0976974 214 220 216
-0.0905563  -0.623841   0.174275 135 129 129
0.0564038 -0.650582 0.0955519 176 180 181
0.0612407  -0.70443  0.195053 200 202 201
 0.187003 -0.558701   0.15953 165 177 167
 0.157221 -0.811773  0.234384 184 174 165
 0.133524 -0.671161  0.151178 185 184 179
 0.158877 -0.699879  0.161138 172 171 166
 0.220342 -0.561883 0.0247323 182 193 177
0.193274 -0.55478 0.167799 209 210 212
-0.0773725  -0.623837   0.171943 123 131 134
 0.199762 -0.557385  0.161408 195 202 195
 0.195413 -0.556067  0.168945 212 221 218
-0.0169015  -0.768441   0.162092 162 157 154
 0.193052 -0.663803 0.0812006 221 225 224
-0.0700495   -0.61481 -0.0590881 191 192 187
0.0213041 -0.778337   0.20004 187 189 178
    0.264284     -0.52737 -0.000791337 131 133 120
 0.265356 -0.568622 0.0151125 197 200 189
 -0.105759  -0.581072 -0.0333168 154 153 149
  0.15431 -0.679842 0.0808704 96 100 103
 0.143987 -0.545415  0.214635 243 245 244
0.0954189  -0.69881  0.201796 200 199 197
0.0510131 -0.687601   0.16764 190 190 188
0.0236116 -0.792408  0.209106 175 183 168
   0.1182 -0.685825  0.178784 197 197 195
0.0767359 -0.615549 0.0316424 171 176 182
-0.0167503  -0.794893   0.172767 161 167 157
 0.188587 -0.752125  0.099426 206 213 205
 0.147984 -0.683453  0.152266 185 186 178
   0.196874   -0.532249 -0.00421109 151 151 141
 0.100082 -0.689247  0.190134 188 181 175
-0.0056474  -0.593445   0.143807 162 161 159
 0.083202 -0.525011  0.260063 244 240 237
0.00997509  -0.642191   0.109994 184 189 185
 0.160678 -0.807641  0.218767 210 211 203
 0.188979 -0.739014 0.0981718 216 218 217
   0.162568   -0.586618 -0.00083047 157 157 155
 0.148376 -0.562164  0.194284 233 241 244
-0.0610718  -0.597747   0.211525 171 162 167
 0.108653 -0.725807  0.219687 208 209 203
0.0682085 -0.621443 0.0434131 188 192 191
 0.219588 -0.589371 0.0388889 152 157 151
 0.08959 -0.56343 0.213117 180 163 156
0.184509 -0.55986 0.163707 202 211 206
0.0221234 -0.640964  0.090955 212 214 213
 0.182558 -0.706257 0.0798657 226 230 229
-0.0254825   -0.80507   0.173705 127 98 102
 0.167963 -0.728606  0.169698 233 233 233
0.0782933 -0.591442 0.0510528 171 173 168
0.00687504  -0.608737    0.12115 183 187 186
0.0362832 -0.568785    0.2916 227 226 224
0.0883519 -0.523231  0.264837 251 250 248
  0.159736  -0.594913 -0.0155905 127 124 115
 0.209811 -0.644461 0.0630852 198 211 204
 0.198722 -0.620742 0.0548395 167 164 159
0.0663391 -0.618727 0.0488412 174 179 175
 0.11109 -0.56069 0.206592 220 225 228
0.141883 -0.57596 0.185389 202 211 208
0.0563711 -0.570056  0.280474 211 207 206
 0.028988 -0.625414 0.0676095 185 183 186
 0.102728 -0.713713  0.213901 213 215 212
  0.262179  -0.544036 0.00938157 211 214 205
0.0964558 -0.561838  0.217001 191 197 185
  0.128977   -0.60353 -0.0305947 137 135 140
0.0413764 -0.569493  0.288651 240 234 236
 0.173268 -0.738275  0.162648 226 232 230
 0.0903439   -0.62346 -0.0147337 176 181 174
-0.0329707  -0.745646   0.111493 143 134 135
 0.122546 -0.729171  0.218863 216 217 211
-0.0338028  -0.586549   0.190151 140 131 132
 0.185494 -0.661669 0.0819626 186 193 186
 0.125343 -0.714068  0.209076 195 192 185
0.0370366 -0.533358  0.297358 221 217 214
 0.189021 -0.778164  0.152586 209 218 217
0.0798735 -0.564711   0.23344 181 180 176
 0.260405  -0.54757 0.0148087 209 208 204
 0.137924 -0.718475  0.193889 205 206 200
 0.212969  -0.61925 0.0501045 201 208 201
 0.218706 -0.823076  0.123955 189 191 188
     0.1782   -0.577403 -0.00803129 182 192 183
-0.00887609   -0.627476    0.129917 167 165 168
0.0425968 -0.554493  0.281258 238 236 239
 0.188322 -0.740188   0.10597 201 207 205
0.0334407 -0.525568  0.302274 247 243 242
 0.182549 -0.709149 0.0760753 228 230 229
 0.114306 -0.558635  0.212445 234 238 237
0.0532866 -0.513364    0.2849 250 249 247
0.0779812  -0.54463  0.267066 236 232 231
-0.0122033  -0.656034   0.117777 183 188 184
  0.191573  -0.535722 -0.0110589 162 157 153
0.0752399 -0.521708  0.265101 242 241 239
 0.154937 -0.808092  0.228637 212 215 208
 0.176273 -0.674668 0.0832681 183 197 182
  0.152591  -0.596168 -0.0202664 150 163 154
 0.187504 -0.554556   0.18062 222 231 226
 0.190715 -0.567686   0.16413 221 223 222
0.0235396 -0.589711  0.119458 199 200 195
 0.106444 -0.784668  0.240292 228 230 225
   0.1062 -0.547221  0.234791 244 244 244
0.0111036 -0.562447  0.297558 197 191 193
0.0506017 -0.527363  0.271744 240 239 235
0.0499275 -0.507908   0.26115 235 226 219
 0.160454 -0.809746  0.218357 220 221 216
0.0948036  -0.76003  0.231001 215 220 216
0.0381737 -0.578311 0.0992067 158 155 150
-0.0438356  -0.587796    0.15806 123 121 124
 0.116777 -0.803495  0.244316 229 230 225
-0.102818 -0.624418  0.169288 137 133 132
-0.0233465  -0.775947   0.161187 148 132 132
0.117373 -0.54122 0.216306 249 247 248
 0.175833 -0.552657  0.185873 229 231 230
-0.0352811   -0.58253   0.206436 147 141 143
0.0954338 -0.563289  0.226854 175 179 178
 0.263612 -0.557695  0.023025 191 202 188
 0.048722 -0.564966   0.28405 240 238 239
0.0201429 -0.661697  0.114839 192 188 185
0.0722132  -0.58903 0.0617246 146 151 154
 0.183442 -0.740947  0.136507 199 211 207
 0.225198  -0.57436 0.0263277 154 153 135
 0.185002 -0.813945  0.193979 220 221 215
-0.0837347  -0.621332   0.182008 124 121 128
 0.187413 -0.779404  0.169049 211 220 215
0.0739948 -0.745122  0.218831 199 205 201
-0.0344325  -0.591675   0.193929 143 134 139
  0.119068  -0.608878 -0.0279517 165 161 158
0.0688423 -0.612666 0.0511337 169 183 183
0.0219885 -0.519843  0.309843 235 231 230
0.0426182 -0.612262 0.0866933 185 182 175
-0.00512054    -0.55656    0.297926 215 213 216
 0.212608 -0.623895 0.0566044 201 206 199
0.154651 -0.70825  0.17684 196 198 197
-0.028837 -0.602758  0.136284 157 154 145
 0.210738 -0.653565  0.060168 179 192 183
 0.131952 -0.776247  0.230737 212 211 207
0.0670066  -0.62274 0.0452115 163 173 165
0.0362099 -0.533011  0.292967 218 214 211
0.0849954 -0.562555  0.223391 185 185 185
-0.0734801  -0.646221   0.122137 136 137 132
 0.200999 -0.547809 0.0118343 163 175 165
 0.190118 -0.715269 0.0711837 216 225 222
 0.0850489  -0.638914 -0.0200086 138 134 131
 0.045329 -0.608069 0.0703201 195 197 192
0.0657374 -0.615271 0.0517863 173 185 181
-0.0551902  -0.623903   0.148266 149 144 141
0.0249643 -0.642289 0.0920798 205 203 206
 0.184793 -0.563806  0.165668 222 224 223
0.00848328   -0.59545    0.13993 178 177 175
  0.11431 -0.555035  0.228484 192 187 193
 0.163487 -0.694049 0.0883809 178 198 189
 0.145413 -0.579145   0.18036 197 203 199
 0.171819 -0.561073  0.176623 243 245 244
-0.107842 -0.534947   0.21194 61 54 62
 0.259196 -0.557586 0.0219267 197 204 196
-0.0898718  -0.626929   0.159527 141 132 133
-0.0606605  -0.618306   0.178242 137 138 143
0.00934227  -0.623163   0.100935 202 204 203
 0.142375 -0.547604  0.204124 230 228 229
0.0809248 -0.603571 0.0382982 183 185 184
-0.0440611  -0.598244   0.173834 163 156 163
 0.182717 -0.577405  0.159964 181 191 182
 0.125445 -0.536374  0.210306 252 252 250
0.0486601 -0.658522  0.107183 160 160 162
0.0434153 -0.551552  0.288626 240 238 241
 0.153899 -0.540955  0.207383 251 251 249
-0.0074466  -0.604323   0.145684 157 165 150
 0.130335 -0.706486  0.198297 203 198 194
 0.180601 -0.816677  0.205468 202 203 195
0.181082 -0.81631  0.20659 202 203 195
0.181835 -0.57732 0.170412 180 196 186
0.0761722 -0.530912  0.264876 239 235 234
 0.191492 -0.703058 0.0749305 201 217 216
 0.117497 -0.557598  0.236184 223 227 226
 0.154481 -0.678151  0.140626 187 188 180
 0.157767 -0.798851  0.195463 215 216 211
 0.189858 -0.740477 0.0631941 187 201 201
0.129566 -0.72296 0.211947 212 202 193
 0.149995 -0.580434  0.175021 180 187 180
0.0654786 -0.631052 0.0392433 186 180 182
0.0789834 -0.540341  0.271119 241 237 236
0.00459688   -0.58943   0.138463 170 165 159
 0.182164 -0.568382  0.169464 232 234 231
 0.194921 -0.749492 0.0513711 159 169 161
 0.221134 -0.827341  0.121647 180 179 175
  0.17579 -0.749425  0.163457 230 234 233
0.0743349 -0.581016 0.0616465 172 175 168
 0.054069 -0.552754   0.27793 239 235 234
0.00243472  -0.582972   0.144959 127 132 126
0.0429278 -0.676245  0.150936 177 186 185
0.0395119 -0.588659 0.0807873 184 188 187
-0.0687616  -0.638066   0.128874 156 161 157
 0.132286 -0.783257  0.240125 194 187 179
0.0411787 -0.537597  0.286224 223 219 216
-0.0393635   -0.59188   0.139537 148 132 135
0.00313267  -0.588648    0.14222 152 152 152
-0.0553637  -0.645824   0.130337 152 147 143
 0.019396 -0.603451  0.116936 192 197 193
 0.147492 -0.656763  0.117483 164 173 172
  0.18832 -0.670697 0.0737324 200 212 208
 0.189952 -0.653439 0.0791434 176 189 182
 0.151345 -0.693721  0.167142 160 161 156
0.197244 -0.55501  0.17158 210 214 213
 0.159358 -0.576513   0.17029 196 197 192
   0.1987 -0.644718 0.0735122 186 198 186
 0.135174 -0.687374  0.170792 177 182 175
  0.104052   -0.63443 -0.0265231 163 165 162
 0.129354 -0.539503  0.211865 242 242 242
0.0850529 -0.608847  0.023814 183 190 182
0.0572782 -0.512677  0.275741 245 237 235
0.0647874 -0.723879  0.205954 209 216 209
  0.20606 -0.822072  0.161218 186 185 180
0.0186248 -0.765661  0.186886 169 169 167
0.0887915 -0.663924  0.160662 192 192 192
0.0797957 -0.556703  0.263266 237 236 234
0.0425726  -0.59483 0.0795686 185 181 178
 0.109718 -0.715114  0.213676 204 203 198
 0.206484 -0.646125 0.0690606 196 209 199
 0.123144 -0.773435  0.233559 201 201 189
 0.236882 -0.586479 0.0379358 215 222 215
 0.200354 -0.556003  0.168408 211 220 215
 0.155263 -0.667173  0.125035 166 175 172
 0.204953 -0.807249 0.0751019 157 153 150
0.0395663 -0.637695 0.0582556 202 203 205
 0.161381 -0.716909  0.181517 210 212 209
 0.161572 -0.805115  0.208229 220 220 220
 0.153961 -0.808237   0.23267 207 208 203
 0.128253 -0.799502  0.246141 198 194 185
0.0117608 -0.581752  0.134599 149 139 137
0.0310037 -0.548306  0.296055 233 231 232
 0.129031 -0.799213  0.244444 218 218 208
0.0294033 -0.665319  0.123486 174 173 169
 0.159781 -0.799636  0.198578 223 223 221
 0.197341 -0.554327   0.16407 210 210 212
 0.096461 -0.558956  0.244253 235 235 235
0.149215 -0.53499 0.215516 248 246 247
 0.187669 -0.578572  0.157677 172 184 180
 0.102849 -0.751266  0.227777 227 229 226
 0.186751 -0.812817  0.190339 204 207 196
 0.245096 -0.622838  0.017441 164 163 161
 0.196625 -0.655749 0.0688783 211 222 218
0.183372 -0.57254 0.165313 220 221 223
-0.00562565   -0.547741    0.305351 226 226 226
0.0608367  -0.56764  0.276812 218 217 215
 0.148343 -0.675821  0.141814 171 166 162
0.0475548 -0.663047   0.11421 177 177 177
0.0237342 -0.756957  0.190803 174 177 168
0.0457124 -0.535167  0.277251 237 236 234
0.0590584 -0.663146 0.0886621 174 175 169
 0.116281 -0.668191  0.159218 180 180 172
 0.257694 -0.580724 0.0207123 207 212 206
 0.13644 -0.55156 0.203308 211 210 206
-0.0953822  -0.620433    0.18145 134 131 138
0.0816403 -0.519937  0.266326 244 239 236
-0.020579 -0.633408  0.123955 160 149 155
-0.0412921  -0.594222   0.152885 148 142 144
-0.00779546   -0.610457    0.136152 185 181 180
0.0450863 -0.513027  0.283162 234 230 227
0.0546764 -0.567601   0.27988 211 210 206
 0.220032 -0.826768  0.112976 167 168 163
 0.148898 -0.804646  0.240784 223 221 209
0.0241957 -0.568911  0.299533 208 213 207
 0.188847 -0.703865 0.0765438 218 223 219
 0.280228 -0.577587 0.0120809 163 168 161
 0.138284 -0.570084  0.192953 227 225 226
0.0284353 -0.744668  0.186242 182 184 183
0.0417902 -0.666586  0.116942 149 155 153
 0.185322 -0.728663 0.0780327 188 208 197
 0.248479 -0.614248  0.017482 206 211 205
0.0233381 -0.574545  0.133156 131 127 141
  0.16208 -0.779758  0.182129 220 226 222
 0.101564 -0.521477  0.247146 240 240 240
0.0581198 -0.619034 0.0611137 187 192 186
0.00241829  -0.663488   0.130128 178 180 175
 0.177377 -0.807219   0.19643 218 220 215
0.0603408 -0.675522  0.157575 177 172 176
0.0971152 -0.804437  0.244298 228 228 220
-0.0729005  -0.599955   0.205181 174 175 179
 0.225613 -0.606626 0.0520856 209 218 213
0.0702796 -0.634786 0.0305323 163 160 167
 0.254952 -0.564448 0.0252021 199 206 198
-0.00288221   -0.602119    0.138047 164 164 162
  0.195475  -0.539354 0.00318445 151 150 145
 0.174473 -0.545849  0.195794 251 253 250
0.0650145 -0.515243  0.250265 213 204 197
 0.162531 -0.735398  0.178653 215 221 219
 0.150443 -0.571295   0.17982 199 198 193
0.0973327 -0.523953  0.268892 249 245 242
 0.167909 -0.704924  0.151869 195 205 197
 0.184676 -0.801127  0.190532 230 235 229
 0.122898 -0.773029  0.236499 211 211 203
 0.188463 -0.698605  0.080785 216 222 220
   0.16825  -0.563557 0.00694412 168 173 167
-0.0381163  -0.589484   0.187309 144 127 133
0.0038697 -0.643864  0.118678 199 204 200
0.0675604 -0.571739  0.262636 163 162 157
 0.234069  -0.62857 0.0338798 208 218 210
0.0760841 -0.580446 0.0617782 131 136 132
0.0379108 -0.816327  0.223575 228 192 192
0.00173252  -0.553931   0.297485 205 204 202
0.141539 -0.79785 0.241326 193 183 174
  0.163145  -0.594426 -0.0252843 118 122 121
0.0482073 -0.555387  0.284143 244 238 240
 0.193249 -0.706927 0.0746141 206 215 214
 0.114187 -0.720243  0.213152 199 192 184
0.158955 -0.79002 0.184688 233 233 231
 0.262578    -0.584 0.0116075 201 209 198
-0.00469544    -0.60269    0.138843 179 180 175
 0.068225 -0.509134  0.242515 109 72 66
0.00999174  -0.579733    0.14005 130 135 129
 0.029696 -0.516999  0.309314 234 230 227
0.000688434   -0.621142    0.119207 188 190 189
-0.00411837   -0.676679    0.129181 189 192 185
0.201683 -0.54771 0.166099 240 242 239
0.0319286 -0.669604   0.12546 161 157 156
0.0469186 -0.649814 0.0919888 170 169 167
0.0486935 -0.597267 0.0717634 183 180 171
0.0803439 -0.610326   0.03163 189 190 194
 0.131492 -0.732472  0.215934 210 209 204
   0.216458   -0.525231 -0.00424161 170 165 159
 0.121282 -0.770458  0.235373 218 219 211
0.0460069 -0.741196  0.199036 201 200 195
-0.0427939  -0.713378  0.0963366 167 164 159
-0.0594873  -0.659164   0.115123 143 143 143
-0.0559428  -0.600424   0.203574 156 145 151
0.0273139 -0.598647 0.0971166 188 194 190
0.0809984 -0.554815  0.261565 223 219 220
0.0227708 -0.583609  0.125605 132 147 144
  0.15125 -0.803404  0.236478 213 206 200
0.0641644 -0.612132 0.0567736 194 194 192
0.0174222 -0.560114  0.303811 197 197 195
   0.0815902    -0.624797 -0.000324015 162 161 159
0.0406067 -0.520896  0.291831 244 240 239
 0.142536 -0.661225  0.132808 169 176 168
0.0703439 -0.558557   0.27434 226 225 221
 0.150238 -0.802397  0.242929 197 181 181
 0.101433 -0.517365  0.239878 209 194 189
 0.185009 -0.714391 0.0784087 208 220 218
0.0509595 -0.537538  0.285038 216 213 208
0.00518332    -0.5848   0.130404 171 171 171
0.00363306   -0.75673   0.170387 161 166 162
 0.183905 -0.774011  0.163997 207 209 208
 0.0748001  -0.639582 -0.0128616 136 141 147
0.0424601 -0.510489  0.264844 235 227 224
0.0201967 -0.605195  0.104568 189 198 195
0.0919172 -0.530831  0.249307 243 243 241
0.0819011 -0.608362 0.0363992 190 191 186
-0.00457748   -0.597613    0.150447 167 169 164
 0.108761 -0.556972  0.219078 191 187 186
0.0724967 -0.544973  0.268915 229 225 224
0.0202583 -0.616765 0.0883836 190 190 188
  0.15266 -0.687659  0.154232 157 152 149
 0.233899 -0.572437 0.0325695 176 193 187
0.0176721 -0.593442  0.123994 170 172 169
0.0447333 -0.563731  0.287468 234 232 233
0.0848391 -0.523715  0.259669 242 238 235
0.0330344 -0.803114  0.220995 190 186 177
0.0706337 -0.548317  0.267125 237 233 234
0.0860795 -0.564299  0.222212 169 160 155
0.0340805 -0.601017 0.0828567 195 191 188
0.0467878 -0.567055 0.0975909 170 163 157
 0.185419 -0.675945 0.0876627 208 212 213
 0.171513 -0.553694  0.189663 226 228 227
  0.14726 -0.536069  0.215218 255 254 252
-0.097161 -0.619854  0.177073 118 114 128
 0.016261 -0.558461  0.304352 189 189 187
0.0510425 -0.538477   0.28021 221 220 216
 0.172481 -0.691362 0.0859694 192 203 197
0.0864669  -0.48438  0.100875 137 116 99
 0.121063 -0.550318  0.206149 249 249 249
0.0649328 -0.573223 0.0774574 149 150 142
0.0180746 -0.520072  0.309907 233 229 226
 0.053117 -0.579793  0.272288 149 141 128
-0.0272881  -0.758833   0.139771 171 171 169
-0.0898804  -0.502548   0.276661 78 74 71
 0.254776  -0.60339 0.0209178 186 196 187
0.0520586 -0.793946  0.231092 191 129 134
 0.136089 -0.686298  0.170332 201 190 188
0.181789 -0.77066 0.164132 225 230 226
 0.105502 -0.558322  0.219439 178 180 175
0.138569 -0.50767 0.206847 115 99 86
 0.169041 -0.702538 0.0845392 194 204 196
0.0865337 -0.563728  0.229968 182 186 187
0.0379696 -0.577095  0.102944 172 160 160
0.0491847 -0.576861  0.281331 183 183 175
 0.060432 -0.777361  0.231232 194 196 191
-0.0385581  -0.606137   0.135138 151 141 140
0.035419 -0.58362 0.100313 159 162 169
0.0353868 -0.583498  0.100068 159 162 169
0.0266613 -0.531907  0.320888 205 200 196
 0.100018 -0.527246  0.267093 254 253 251
-0.0138156  -0.614253   0.135517 172 179 172
 0.104932 -0.506543  0.214916 129 111 101
0.0176433 -0.562775  0.299536 196 197 199
 0.011708 -0.584056  0.139172 152 154 153
 0.151195 -0.575375  0.174187 220 222 221
0.0270032  -0.65176  0.104224 199 199 197
 0.140462 -0.757313  0.205897 210 216 216
  0.281677  -0.577126 0.00506592 153 163 162
-0.0063104  -0.609235   0.141697 178 183 177
-0.0407029  -0.634544   0.124355 147 146 142
-0.0552867  -0.618185   0.162524 150 142 139
0.0508162 -0.528541  0.279563 244 243 241
 0.221447 -0.613068 0.0519732 199 209 200
0.0251743  -0.64944  0.103801 193 193 191
-0.0634963  -0.604107   0.203702 156 165 172
  0.0791455     -0.6272 -0.00805787 150 148 151
 0.193559 -0.567561   0.15381 222 224 223
 0.188466 -0.546983 0.0116915 169 175 165
 0.017661 -0.653334  0.114003 195 195 193
 0.257604 -0.606102 0.0191486 169 174 167
0.151926 -0.54873 0.206537 218 219 221
 0.148094 -0.536663  0.208229 255 254 252
 0.174583 -0.808543  0.201839 222 231 226
  0.119092  -0.623159 -0.0308977 170 179 176
 0.10465 -0.69787 0.203675 199 192 186
 0.236171 -0.596992 0.0507416 207 207 207
-0.0509012  -0.606364   0.174765 136 120 121
 0.077331 -0.729679  0.217979 218 220 215
0.0735058 -0.611483  0.051059 173 175 170
0.0886904  -0.51994  0.254258 231 226 223
0.0665724 -0.680651  0.171658 173 175 170
 0.184003 -0.685552 0.0834292 164 176 172
 0.136904 -0.761814  0.220425 209 214 210
   0.1406 -0.557461  0.192589 248 250 249
0.0406123 -0.527669  0.282617 250 249 247
0.0039534    -0.671  0.125893 211 212 206
 0.123995 -0.698665  0.195276 188 185 180
-0.0321299  -0.625459    0.14682 157 151 153
-0.011584  -0.79968  0.184035 165 166 160
0.0990938 -0.654606  0.150609 187 179 177
 0.108515 -0.789702   0.24393 228 232 235
 0.146158 -0.690491  0.166503 188 185 178
 0.236193 -0.571914 0.0349275 168 184 174
 0.149384 -0.573385  0.183972 219 219 219
 0.262464 -0.555369 0.0255244 199 202 195
0.0508362 -0.686096  0.161487 178 187 186
 0.162006 -0.577924  0.163486 162 159 152
0.0593403 -0.570127  0.278766 202 198 197
-0.0168423  -0.695815   0.119145 167 165 166
 0.158021 -0.697323  0.161806 166 165 160
0.0737978 -0.587234 0.0598529 154 163 162
-0.0892526  -0.636451   0.131936 131 146 139
 0.198808 -0.794922  0.158574 213 219 215
 0.188358 -0.669849 0.0782343 184 195 191
 0.148292 -0.570929  0.182798 230 229 227
0.0491543 -0.511879  0.266247 242 234 232
 0.123479 -0.522735  0.229865 237 233 232
   0.174732   -0.589292 -0.00302893 154 154 162
 0.100461 -0.648877  0.139455 162 161 159
 0.154414 -0.577009  0.171149 205 206 210
0.157551 -0.53958 0.206866 241 241 239
 0.261441 -0.558099 0.0241965 206 209 200
 0.156918 -0.538901    0.2081 244 244 242
 0.113965 -0.717357  0.215405 195 188 180
 0.132642 -0.786633  0.241724 198 195 188
 0.135606 -0.669652  0.153466 176 173 168
0.0353156 -0.547631  0.286231 237 235 236
0.0162341 -0.548502  0.315957 224 221 216
0.0762236  -0.56279  0.264991 211 212 207
 0.114904 -0.800039  0.243307 202 207 201
 0.140032 -0.767575  0.226277 193 202 199
0.0383131 -0.637648 0.0639965 206 208 205
 0.136616 -0.702724  0.187132 184 180 177
0.0147214 -0.546701  0.312983 240 239 237
-0.00365733   -0.792826    0.185392 217 216 211
0.0266443 -0.750803  0.189478 189 193 192
0.0652022 -0.560707  0.279125 230 228 229
0.0480879 -0.571138 0.0908969 153 141 143
-0.0956732  -0.625127    0.17021 113 117 118
 0.177671 -0.559398  0.173691 229 230 225
0.0685382 -0.538342  0.279064 233 232 228
 0.192439 -0.699078 0.0784707 206 215 212
-0.0443201  -0.695604  0.0979086 150 150 158
0.0114487 -0.598065  0.119692 181 169 171
0.0772031   -0.5401  0.276399 229 229 227
-0.0381831  -0.585071   0.223312 136 143 136
 0.135952 -0.569995  0.185754 222 222 220
0.0838272 -0.785713  0.238595 227 228 220
 0.133559 -0.724999  0.200883 195 192 183
0.0681656 -0.539687  0.278599 229 225 222
0.0230515 -0.564341  0.302386 227 226 224
 0.140899 -0.755529  0.206711 205 212 205
0.0797471  -0.52253  0.269219 242 238 235
0.0733281 -0.548121  0.268839 231 227 226
 0.209994 -0.624235 0.0570778 205 214 209
  0.19818 -0.837908 0.0672285 203 204 198
-0.0229739  -0.884636  -0.877179 54 64 63
0.0959752 -0.681067  0.170923 183 180 173
  0.01052 -0.516723  0.295824 220 221 216
 0.184782 -0.741899  0.131717 222 226 225
  0.283451  -0.502136 -0.0185524 29 21 19
  0.227452  -0.646906 0.00252767 26 29 34
 0.153328 -0.560264  0.181904 250 252 251
   0.1674 -0.781849   0.10228 169 174 168
 0.180647 -0.739453  0.170893 235 237 236
-0.0535075  -0.665963   0.106183 165 160 164
 0.190145 -0.789985  0.124487 180 189 184
 0.117112 -0.688585   0.17816 185 182 177
  0.17843 -0.816597  0.211057 218 217 215
 0.167702 -0.585141  0.155794 212 207 201
   0.28007  -0.582387 -0.0138845 188 183 180
  0.283733  -0.543564 0.00233022 211 212 206
  0.190528  -0.571211 0.00519042 134 130 118
 0.158688 -0.686329  0.133359 174 177 170
  0.17245 -0.703294  0.114166 213 213 213
 0.245243  -0.58205 0.0303399 225 226 218
0.0695961 -0.544581  0.275197 201 199 200
 0.172828 -0.585589  0.148899 216 216 208
 0.036788 -0.599091 0.0764377 193 191 192
-0.0896039   -0.58893   0.196801 40 26 41
 0.172324 -0.815156  0.214499 205 205 193
 0.176902 -0.557402  0.169203 197 198 193
 0.182576 -0.743177  0.102648 217 219 216
 0.190827 -0.665501 0.0725422 244 248 249
 0.194537 -0.652803 0.0773429 200 213 204
 0.154179 -0.776707  0.217628 191 202 185
  0.285448  -0.571087 -0.0312279 38 38 30
 0.166871 -0.815856   0.22404 188 181 171
 0.209282 -0.636102 0.0614556 246 248 247
 0.223297 -0.623325 0.0520759 228 233 229
 0.160247 -0.795358  0.191279 194 196 195
 0.173997 -0.691493   0.13247 208 204 201
0.0945143 -0.503807  0.241445 128 109 95
 0.172559 -0.709032  0.130955 211 213 208
 0.185879 -0.706218 0.0875172 239 239 239
 0.147626 -0.572843   0.16849 172 168 167
 0.139948 -0.792565   0.23273 184 180 171
0.0852719 -0.614228  0.027886 225 223 226
0.161747 -0.81037 0.226246 206 202 191
 0.150741 -0.752909  0.192217 218 219 214
-0.449674 -0.377234   0.15708 67 38 43
 0.107433 -0.788872  0.241766 203 206 199
 0.259053 -0.572265  0.015634 203 209 197
 0.108034 -0.481885  0.269694 171 148 134
0.000833837   -0.625424     0.11558 193 193 191
 0.169699 -0.817029  0.229991 212 212 204
 0.077921 -0.546818  0.258425 236 232 233
 0.130937 -0.672576  0.153262 169 159 157
 0.186909 -0.671035 0.0668674 195 203 205
 0.179791 -0.732219  0.155822 232 230 233
  0.0772399   -0.630996 -0.00837213 172 178 174
 0.188514 -0.686406 0.0823066 236 237 239
 0.188325 -0.555124  0.178079 229 233 234
 0.185528 -0.673012 0.0385209 167 172 165
 0.175801 -0.695964 0.0856906 252 254 253
 0.222601 -0.574771  0.026962 185 182 175
 0.100179 -0.706469  0.205216 187 188 180
 0.168653 -0.823213  0.233493 185 171 162
 0.182611 -0.777309  0.158845 240 242 241
 0.198911 -0.809561  0.113861 162 160 161
 0.179158 -0.536811  0.172447 207 194 186
0.175258 -0.81874 0.222954 207 213 203
-0.0879289  -0.603388   0.199603 45 31 54
 0.158474 -0.833597  0.242964 216 219 212
  0.19534 -0.844739  0.185853 206 200 188
 0.182873 -0.771736  0.160048 242 244 243
0.0189339 -0.611119 0.0945526 187 185 186
0.0770236 -0.820572  0.241902 202 207 201
 0.194313 -0.721608 0.0608367 222 226 227
 0.191855 -0.751307 0.0736204 193 199 199
 0.103768 -0.746708  0.226929 211 207 204
0.108766 -0.69875 0.199751 205 204 200
-0.0401706  -0.600192   0.130416 157 145 145
 0.186364 -0.830696  0.206877 227 226 221
 0.215045 -0.606202 0.0514362 145 155 147
 0.221259 -0.844568  0.115534 178 180 167
0.0891843 -0.838421  0.263492 225 226 220
  0.19095 -0.756678 0.0731699 187 196 195
0.0839638 -0.532324   0.26269 228 224 223
 0.143627 -0.721704  0.191163 227 230 223
 0.093125 -0.562408  0.237402 150 149 154
 0.206118 -0.725803 0.0594601 154 163 162
 0.169633 -0.826607  0.235269 174 173 168
  0.18421 -0.722673  0.101971 202 206 205
0.139346 -0.67581 0.152954 171 161 160
 0.163566 -0.815581  0.240258 188 181 171
 0.199371 -0.811174  0.168369 216 213 208
0.0829814 -0.530071  0.258078 224 223 221
 0.123135 -0.526522  0.225486 242 238 237
  0.267454  -0.571883 0.00919736 210 213 206
0.0276954 -0.622144 0.0707665 206 207 202
 0.173505 -0.712581  0.140265 196 199 192
 0.181065 -0.734047  0.131214 212 212 212
 0.182796 -0.773962  0.154743 221 223 222
 0.191081 -0.751766 0.0828757 218 220 217
-0.0467148  -0.583785   0.148048 155 139 142
0.00196735   -0.57464    0.13501 145 147 144
0.0603051 -0.440212 0.0107228 126 65 47
 0.198248 -0.802299  0.116348 228 230 225
0.0412192 -0.585696 0.0871123 188 184 185
 0.176812 -0.712714   0.10242 231 233 230
 0.197499 -0.792012  0.159714 219 221 220
  0.286248  -0.569736 -0.0152069 140 144 130
0.0846289  -0.66731  0.161451 187 186 182
 0.205911 -0.804722  0.138846 191 197 185
  0.04649 -0.521394   0.27478 172 167 163
 0.187404 -0.835798  0.205244 205 198 188
-0.106773 -0.610666  0.180364 128 128 130
   0.121185   -0.567216 -0.00972173 173 178 171
 0.198115 -0.792038  0.139144 186 191 185
0.0240791 -0.511989  0.283043 174 164 162
-0.0283967  -0.583496   0.202725 135 129 131
 0.174334 -0.833361  0.242576 156 157 149
  0.155144  -0.564422 0.00251368 213 213 215
 0.185211 -0.707511 0.0790485 205 216 210
 0.249384  -0.59191 0.0273719 209 213 212
 0.165638 -0.697892 0.0971119 206 208 205
   0.212269    -0.52349 -0.00721062 179 179 167
 0.259629 -0.608845  0.001394 157 164 157
  0.24744 -0.594963 0.0319717 181 189 176
 0.181308 -0.758293  0.124722 205 209 208
0.0900363 -0.822903  0.248703 216 218 213
0.0903068  -0.82248  0.248949 219 222 215
-0.0786719  -0.621006   0.177939 143 139 136
 0.259574 -0.531261  0.006993 178 181 170
0.0049088 -0.620071  0.121272 201 207 205
 0.216581   -0.5655 0.0209581 159 156 149
0.0804233 -0.844247   0.25507 206 207 201
 0.155323 -0.749362  0.187996 237 237 235
0.0183939 -0.589172  0.125191 156 145 143
  0.281071  -0.541809 0.00637644 202 205 196
0.0328927 -0.608663 0.0685243 181 177 174
   0.155249   -0.564248 -0.00438892 217 219 214
0.165145 -0.81607 0.233205 216 214 202
 0.165628 -0.815277    0.2277 187 183 174
0.0669917  -0.54879   0.27423 228 226 227
0.0670305 -0.548917  0.274194 236 232 233
 0.168923 -0.829659  0.239466 212 209 200
 0.139354 -0.761278  0.215313 203 213 204
 0.138594 -0.780479  0.229282 185 181 182
0.0971271 -0.559954  0.240886 209 213 216
 0.160677 -0.817869  0.241787 204 200 191
 0.271549 -0.545769 0.0130722 224 225 220
0.0776725 -0.804241  0.247963 210 213 206
  0.183378  -0.544103 0.00273827 154 157 150
 0.190128 -0.671645 0.0771819 220 224 223
 0.169831 -0.548021  0.198594 243 243 243
 0.187183 -0.759532 0.0800178 166 172 170
 0.238931 -0.589925 0.0340753 227 229 226
 0.189315 -0.760176  0.087392 189 195 193
 0.268677 -0.565084  0.013273 186 188 183
0.0319019 -0.520633  0.301253 215 207 205
 0.269621 -0.548386 0.0145668 222 224 219
 0.222071 -0.837189  0.109821 169 172 165
 0.224988 -0.607595 0.0475477 215 216 211
 0.191673   -0.7046 0.0706033 236 241 237
 0.104777 -0.555045  0.236206 241 241 241
 0.191439 -0.800517  0.110718 194 186 183
0.0248683 -0.592462  0.111045 201 196 190
  0.154457  -0.582866 0.00300262 160 161 156
-0.051364 -0.633373  0.143452 158 144 143
  0.128302  -0.539566 -0.0195613 162 153 144
 0.183711 -0.741426  0.137493 224 220 217
0.0899724 -0.563247  0.240801 166 166 158
 0.156302 -0.830978  0.244325 188 188 178
 0.131929 -0.798125  0.242893 182 173 168
 0.176965 -0.837923  0.230722 214 211 202
 0.180847 -0.836929  0.219877 216 215 210
  0.20703 -0.832996  0.145514 177 178 170
-0.032669 -0.603421  0.139005 144 135 128
 0.188866 -0.735979  0.101685 205 207 204
0.0992779 -0.791483  0.242369 196 199 190
  0.14342 -0.711178  0.184044 189 184 181
0.0760241  -0.50287  0.266513 144 123 106
 0.201215 -0.562315  0.143158 210 210 208
-0.00600007   -0.617425    0.130948 187 184 179
 0.125391 -0.828711  0.248529 214 217 210
 0.145227 -0.758064  0.205086 236 241 234
0.0249281 -0.528766  0.309825 209 205 202
  0.158717  -0.583506 0.00194146 162 159 154
 0.050505 -0.535316  0.280856 243 238 235
 0.173791 -0.721687  0.155289 229 231 230
0.0672404 -0.560434  0.272495 190 189 184
0.0151422 -0.634169 0.0997135 202 213 209
-0.0614811  -0.612974   0.177233 122 110 120
 0.105726 -0.521768  0.250325 230 226 223
 0.274371 -0.543786  0.012508 197 190 180
  0.0840978   -0.628125 -0.00832646 170 171 166
 0.176787 -0.820686  0.220752 209 209 199
 0.187735 -0.572035  0.161984 230 230 228
 0.194435 -0.691985 0.0726977 224 234 226
0.0984476 -0.682214  0.178602 181 183 182
 0.218408 -0.826773  0.102504 221 220 218
 0.201257 -0.764222  0.183492 231 231 231
0.00728379  -0.569726   0.141088 128 113 120
 0.203674 -0.810845 0.0757811 193 192 190
  0.274089  -0.571027 0.00827722 184 174 165
 0.135762 -0.711159  0.198456 207 206 201
 0.135081 -0.711436  0.197873 206 203 196
 0.217641  -0.62108 0.0531095 209 211 210
 0.175075 -0.661955 0.0734793 155 156 151
 0.186498 -0.765312    0.1511 206 212 212
 0.098592 -0.822566  0.248864 211 216 210
 0.126301 -0.762253  0.226528 185 176 167
 0.069261 -0.556684  0.270642 234 234 234
0.00671815  -0.578543   0.120254 152 138 138
 0.106268 -0.561811  0.201142 177 174 169
 0.181619 -0.700099 0.0806385 229 229 229
 0.188564 -0.565155  0.151374 251 251 253
 0.142872 -0.801434  0.278817 205 206 198
 0.189622 -0.560293   0.15578 229 229 229
 0.152652 -0.673579  0.106156 177 186 183
 0.189464 -0.777847  0.154243 237 237 237
 0.189763 -0.750358 0.0970846 207 208 210
 0.117754 -0.810757  0.245464 203 210 202
 0.126472 -0.784472  0.241376 197 196 191
 0.262033 -0.572929 0.0104802 205 210 204
 0.110496 -0.734149  0.224949 205 207 204
-0.065005 -0.641676  0.134992 136 130 134
 0.173632 -0.694851  0.118319 236 240 239
 0.185948 -0.570259  0.163791 249 249 251
 0.219587 -0.592479 0.0404347 176 182 172
0.0450342 -0.540223  0.298195 194 194 192
  0.15646 -0.807516  0.226491 215 218 209
 0.103781 -0.720431  0.225441 193 189 186
 0.124577 -0.752908  0.228763 192 182 181
 0.212937 -0.643078 0.0467755 226 228 223
 0.114539 -0.663526   0.15387 192 192 184
 0.163166 -0.536679  0.203054 196 189 183
 0.213215 -0.645837 0.0565027 218 223 217
0.0944788  -0.77492  0.236477 207 210 203
 0.146424 -0.759013  0.197984 234 235 230
 0.110228 -0.666656  0.159012 182 180 181
0.0607711 -0.639886 0.0194902 167 173 169
 0.143109 -0.688897  0.165743 173 168 164
 0.188318 -0.739075 0.0717163 192 197 191
-0.0463754  -0.652087   0.112166 175 159 159
0.177088 -0.73664 0.146416 220 222 221
 0.158399 -0.799721  0.198018 226 227 219
 0.158344 -0.678161  0.118359 202 201 197
 0.192869 -0.702465 0.0696137 190 201 197
 0.137216 -0.661301   0.13776 179 176 171
 0.101214 -0.740828  0.215866 200 201 195
 0.172535 -0.695669  0.136134 195 197 194
  0.117725  -0.562886 -0.0143923 170 167 158
0.0847465 -0.615458 0.0174759 202 204 203
0.0847322 -0.791277  0.242852 207 213 201
 0.242051 -0.587337 0.0343697 208 214 204
0.214248 -0.85458 0.135421 191 198 182
0.0205671 -0.572054  0.135503 163 159 158
 0.159285 -0.695401 0.0699474 193 197 196
 0.116909 -0.516671  0.231416 122 79 72
 0.208633 -0.848385  0.154821 182 182 174
  0.0735263   -0.630043 -0.00202417 167 167 165
0.0660246  -0.84694  0.262182 170 147 153
 0.173559 -0.828302  0.232368 204 209 203
 0.150829 -0.687338  0.155723 183 186 177
  0.22268 -0.847228 0.0997634 202 201 197
0.0858864 -0.601803 0.0125166 198 200 195
0.0642939 -0.607702 0.0608416 198 200 197
0.0827758 -0.517771  0.257727 202 198 195
 0.124905 -0.649356  0.131868 163 168 164
 0.181952 -0.747071  0.135985 218 219 221
0.0761044 -0.589927 0.0572502 173 176 169
 0.131628 -0.680174  0.163867 193 188 182
 0.105691 -0.741565  0.227151 207 206 201
