ply
format ascii 1.0 
element vertex 1098
property float x
property float y
property float z
property uchar red
property uchar green
property uchar blue
end_header
 0.133857 -0.925938 0.0259483 218 218 218
  0.149649  -0.864627 -0.0169627 184 180 179
   0.153356   -0.888109 0.000275201 197 196 191
-0.0338546  -0.762851 -0.0564908 176 177 172
 0.165728  -1.07526 0.0284465 225 230 226
  0.167791  -0.885699 -0.0167629 221 221 221
 0.205794 -0.855017 -0.114832 249 253 254
 0.111606  -1.03665 0.0453794 235 240 236
  0.120428  -0.848934 -0.0175203 174 173 169
  0.242191   -1.01551 -0.0852505 212 218 216
 0.0343072   -0.75693 -0.0867464 207 209 208
 0.226924 -0.785919 -0.127043 209 214 217
0.181348 -1.07828 0.021207 222 224 219
0.0815354 -0.757922 -0.140004 184 186 183
  0.198381  -0.895954 -0.0572867 223 227 228
 0.285481 -0.685017 -0.162043 222 228 224
 0.157481  -1.10325 0.0373289 207 215 202
  0.174557  -0.896112 -0.0219287 238 239 241
-0.0262022  -0.792296 -0.0544941 151 160 157
  0.204557   -1.07507 0.00442795 218 218 216
 0.023789 -0.711613  0.108242 208 206 209
 0.165899  -1.09873 0.0321017 221 221 213
 0.281272 -0.732855 -0.171301 224 235 229
 0.0336513  -0.820695 -0.0902417 177 181 180
  0.187178    -0.8685 -0.0564878 202 203 205
  0.132324  -0.827473 -0.0419375 197 191 191
  0.107466  -0.829862 -0.0344298 198 193 197
0.0610824 -0.720559 0.0919183 216 220 219
 0.246028 -0.721297  -0.14817 135 135 145
  0.220192  -0.979215 -0.0346409 210 209 205
 0.098261  -1.01848 0.0394084 254 254 254
-0.0243689  -0.797742 -0.0564377 136 145 144
  0.214707  -0.967028 -0.0315846 217 217 217
 0.119048  -1.06987 0.0525641 192 193 187
 0.0181729   -0.76196 -0.0736521 177 167 168
 0.175536  -1.01061 0.0313295 227 227 225
0.0464695 -0.785707 -0.135785 227 228 232
 0.171169 -0.997488 0.0348315 190 191 185
 0.286158 -0.700987 -0.167735 187 194 187
 0.112712  -1.05031 0.0487414 234 236 233
 0.0129051  -0.856469 -0.0791225 208 189 195
 0.180418  -1.06808 0.0218043 240 244 243
 0.0429027  -0.730113 -0.0793062 188 189 184
 0.0486671  -0.732845 -0.0949428 181 179 180
0.00896076  -0.833192 -0.0777752 216 218 217
 0.169211  -1.04347 0.0275614 212 214 213
 0.288905 -0.682625  -0.15647 215 217 216
  0.242039    -1.0529 -0.0562531 218 223 219
 0.158443  -1.09088 0.0364568 163 161 148
 0.157937 -0.966963   0.03201 183 174 167
 0.116551  -1.03289 0.0375533 216 217 212
 0.212836  -0.90811 -0.127945 215 220 223
 0.0192278   -0.82526 -0.0794236 185 183 186
   0.19853  -0.888715 -0.0642641 220 224 225
0.0849746  -1.07446 0.0581688 185 185 173
0.0695119 -0.740603 -0.117841 163 165 164
 0.130142  -1.09344 0.0330438 168 180 168
-0.0776078  -0.788441  -0.010602 148 137 141
 0.134038  -0.97823 0.0353057 186 193 185
0.0690486 -0.754272 -0.120599 165 174 173
0.166613 -1.04623 0.028915 238 237 233
-0.0300015  -0.763359 0.00313936 131 131 133
 -0.05864 -0.831903 -0.106168 183 190 182
  0.19718 -0.851978 -0.112016 247 252 255
0.0960093  -1.06084  0.060215 184 196 186
   0.21028  -0.713959 -0.0520836 229 238 243
  0.175008  -0.942291 -0.0240764 253 255 254
  0.170452  -0.939061 -0.0240312 225 225 225
  0.229603   -1.06391 -0.0297174 194 194 184
 0.195897  -1.08177 0.0134824 207 218 214
 0.202644 -0.908394 -0.105057 212 216 219
-0.0658454  -0.794448 -0.0338473 166 174 177
  0.127185  -0.869524 0.00435786 191 190 186
   0.130486   -0.862559 -0.00147826 188 190 187
   0.164231   -0.900966 -0.00988971 219 220 222
 0.139844 -0.977527 0.0354987 207 206 202
  0.12694 -0.769792 -0.221725 188 189 191
 0.214717  -0.86267 -0.142915 192 194 193
0.0543557  -0.71989 0.0968748 228 224 225
0.0117586 -0.698715  0.114554 209 207 210
 0.154689 -0.998132 0.0366631 235 237 236
  0.206659   -0.96124 -0.0251212 220 221 225
0.143343 -0.98135 0.034824 193 194 189
 0.153099  -1.06656 0.0340614 226 226 226
  0.219145  -0.999174 -0.0293143 214 215 209
  0.219264  -0.999168 -0.0293316 213 216 207
 0.143988 -0.906797 0.0137456 213 209 210
  0.143868  -0.830675 -0.0441356 178 179 174
 0.202255 -0.856796  -0.11565 227 231 234
 0.252484 -0.719627 -0.150066 216 222 222
0.0542528 -0.740967 0.0880526 198 200 199
  0.159027   -0.91474 -0.0060991 222 224 223
 0.319933 -0.664738 0.0337049 160 139 120
0.0631346 -0.992736 0.0211355 205 162 171
0.0835401 -0.767624 -0.149615 213 212 217
  0.218226  -0.979072 -0.0318998 184 189 182
  0.151731  -0.889157 0.00247677 215 211 208
0.188971 -1.02362 0.019035 216 221 215
  0.199977  -0.990046 0.00921351 206 205 203
    0.156052    -0.919973 -0.000489757 220 222 221
 -0.104731  -0.782194 -0.0304439 175 174 180
   0.14342  -0.860467 -0.0182566 161 154 148
  0.16406 -0.823144 -0.118507 137 146 153
 0.156749  -1.04258 0.0339231 243 245 244
  0.246816   -1.09396 -0.0592457 205 210 203
0.0545617  -1.00358 0.0174106 234 222 222
0.0894491 -0.760699 -0.151058 207 211 212
 0.141468 -0.944813 0.0255457 177 172 169
0.151984 -1.07586 0.037931 228 231 224
 0.272079 -0.669165 0.0667177 138 125 117
 0.205035 -0.718811  -0.03723 218 218 220
 0.212253 -0.911679 -0.130038 196 206 207
0.00988799  -0.765529 -0.0648922 168 180 176
  0.23357 -0.737151 -0.138467 191 201 203
 0.169822  -1.08793 0.0229047 220 221 216
   0.23686   -1.00476 -0.0602326 164 169 163
  0.240028   -1.00522 -0.0762149 205 207 202
  0.21817 -0.961359 -0.040998 221 223 222
 0.174939 -0.976483 0.0221761 211 213 208
  0.210261  -0.708391 -0.0193432 207 211 212
  0.26272 -0.733476 -0.151125 193 199 197
 0.044377 -0.727351 -0.079762 155 160 156
 0.180426 -0.843385 -0.111069 229 230 225
  0.154162  -0.854535 -0.0253373 200 194 194
 0.178127 -0.997424 0.0310457 231 232 226
   0.218734    -1.07212 -0.00911067 232 234 233
 0.166923  -1.05149 0.0269795 192 194 183
 0.205497 -0.886707 -0.101114 247 251 252
0.0996499 -0.972409 0.0311028 189 194 188
 0.079978 -0.781616 -0.160819 190 191 195
 0.0125124  -0.796334 -0.0921141 174 178 179
 0.103922  -1.09357 0.0589416 181 172 163
 0.261324 -0.733125 -0.148202 234 240 240
   0.218683    -1.08635 -0.00881945 228 239 235
 0.183022 -0.995403 0.0298883 210 210 198
-0.0346394  -0.808768  -0.081432 169 166 173
 0.249657 -0.678104 -0.160078 171 173 170
  0.193746  -0.866403 -0.0724147 235 239 242
 0.167656  -1.04151 0.0279974 233 239 235
 0.287011 -0.678917 -0.165797 210 214 213
  0.190243  -0.738218 -0.0281941 155 152 147
0.0401363  -0.69618 0.0876384 226 226 228
  0.162423  -0.871605 -0.0198858 196 192 193
  0.206184  -0.891803 -0.0916741 239 245 245
 0.189908 -0.984178 0.0193029 193 184 179
0.0565017 -0.980041 0.0164329 223 208 213
 0.175007  -1.09947 0.0189068 238 244 242
  0.239461   -1.06676 -0.0584217 184 189 182
  0.22077     -1.03 -0.024547 145 141 140
0.0832267 -0.765179 -0.145315 208 212 215
 0.181077 -0.989941 0.0308962 203 200 193
 0.164455  -1.07044 0.0301453 224 229 223
0.0266365 -0.827725 -0.081595 219 218 223
 0.122197  -1.10092 0.0303444 110 139 121
  0.206528   -1.08057 0.00142765 228 230 227
 0.207976 -0.753285 -0.151236 181 191 190
 0.244891 -0.777655 -0.176763 200 209 208
  0.162581  -0.824554 -0.0634498 195 199 198
 0.183108 -0.824628 -0.112399 174 178 177
 0.0410325    -0.7547 -0.0946512 185 190 193
  0.219272   -1.02649 -0.0255152 156 161 154
 0.0186307  -0.764433 -0.0765933 187 185 186
0.0824539 -0.761829 -0.145502 186 186 188
 0.136379 -0.972522 0.0353064 234 239 235
 0.241965 -0.748855 -0.143886 245 249 248
 0.205476 -0.813332 -0.111822 233 237 238
 0.138714 -0.926122 0.0180013 172 172 172
  0.231719   -1.06974 -0.0321123 219 221 216
 0.135361 -0.953417 0.0334176 189 195 191
 0.136346 -0.925219 0.0234413 204 200 201
 0.175331 -0.984063 0.0338232 191 186 180
   0.217234    -1.05678 -0.00657449 195 197 192
   0.156115   -0.912382 -0.00114926 206 205 203
0.0522226  -0.74793 -0.113648 146 144 145
  0.196652   -1.04972 0.00949048 189 188 183
  0.198289   -1.06301 0.00923586 237 239 234
-0.0401026  -0.768514  -0.021875 156 151 147
 0.106231  -1.07701 0.0561852 200 208 193
0.0893215 -0.767341  -0.15905 202 206 209
 0.101116 -0.777336 -0.206073 164 176 174
 0.152842  -1.08069 0.0384035 220 232 222
 0.204817 -0.882118 -0.100231 243 247 248
  0.200285   -1.05906 0.00720171 207 210 201
 0.253797 -0.764329 -0.157353 235 241 239
 0.168576 -0.975934 0.0313137 218 216 219
  0.165059  -0.841438 -0.0555752 157 162 156
 0.111027  -1.04542 0.0407368 241 243 238
 0.263776 -0.751593 -0.164321 205 216 212
  0.154719   -0.90645 0.00586545 223 221 224
  0.235142   -1.00517 -0.0581857 194 197 190
 0.134874 -0.998307 0.0356066 218 220 219
 0.134645  -0.98269 0.0353488 177 177 175
 0.153272 -0.990944 0.0367032 220 219 215
 0.181129  -1.07465 0.0211461 233 235 230
0.0802341 -0.760633 -0.140029 214 217 224
0.0857809 -0.782326 -0.172378 180 181 183
 0.161409   -1.0946 0.0354457 197 197 187
 0.193763 -0.988776 0.0179101 213 209 206
 0.204044  -0.87988 -0.109795 251 255 254
  0.239466  -0.994703 -0.0752393 210 211 205
  0.245151   -1.10214 -0.0544167 221 227 225
  0.107717  -0.837483 -0.0290752 199 199 199
0.114842 -1.05809 0.048029 217 224 217
  0.242427   -1.04259 -0.0794569 213 219 209
  0.10112  -0.77344 -0.199629 178 184 184
  0.241918   -1.04039 -0.0787656 206 212 210
0.0939456  -1.08886 0.0622986 142 154 140
  0.176076  -0.871131 -0.0351056 203 208 204
 0.205867 -0.881355 -0.125721 213 219 219
 0.197101 -0.815276 -0.111288 202 202 210
 0.24277 -1.02687 -0.09572 191 192 187
 0.185783  -1.08253 0.0205947 221 226 220
0.0808539 -0.769597 -0.144643 201 212 204
  0.229787   -1.05817 -0.0285862 193 195 182
  0.153157  -0.848983 -0.0314517 167 175 164
 0.0463647  -0.739879 -0.0995741 187 188 183
-0.0178524  -0.894028 -0.0806099 218 224 220
-0.0190072  -0.873616  -0.154097 192 201 200
 0.0606409  -0.947933 0.00616952 210 144 148
-0.0287422  -0.850598  -0.159779 206 216 215
 0.0237702  -0.885528 -0.0614736 209 220 214
 0.0562676   -0.89047 -0.0198608 236 241 244
-0.000495381    -0.929831   -0.0683373 193 144 147
 0.0996378  -0.880067 0.00708336 173 184 186
-0.0410575  -0.838226  -0.102542 167 186 180
-0.0315717  -0.850366  -0.138369 207 217 219
 0.111109 -0.912246 0.0244811 189 201 199
 0.0128035  -0.913893 -0.0620462 199 196 189
 0.0725576  -0.871052 -0.0102648 214 223 228
-0.0728023  -0.825438  -0.163761 44 31 49
 0.0223953  -0.946808 -0.0296325 219 223 222
0.00462716  -0.822028 -0.0797731 195 206 208
0.00401819  -0.909238 -0.0877174 215 213 218
-0.0310145  -0.929643  -0.126035 229 235 231
 0.0589482  -0.855664 -0.0375485 222 230 232
0.0748374 -0.944949  0.015474 241 245 246
 0.0491273  -0.872691 -0.0420016 165 123 133
0.0772564  -0.92789 0.0192114 205 216 218
  0.025892   -0.87655 -0.0655338 214 218 219
-0.0217151  -0.955259 -0.0734828 215 217 212
-0.0667715   -0.83003  -0.117883 163 182 178
-0.0452058  -0.834191 -0.0998485 229 231 228
0.0819442 -0.902642 0.0101087 181 193 193
 0.0622078  -0.865132 -0.0272029 222 223 225
 0.0188936  -0.921354 -0.0441151 221 230 227
 0.0172745  -0.903926 -0.0604528 198 203 206
-0.0250568  -0.905415  -0.118539 196 194 199
 0.0554711   -0.87048 -0.0286026 228 232 233
-0.0148799  -0.948613 -0.0642968 200 200 200
0.0777925 -0.886352 0.0007788 224 233 232
-0.0371369  -0.835136 -0.0974161 192 196 197
 0.0612934  -0.861918 -0.0308462 199 210 206
0.00331401  -0.957953 -0.0381634 198 201 194
 0.0294687  -0.879437 -0.0615092 214 223 222
  0.0375634   -0.961584 -0.00870275 231 235 236
 0.0247371   -0.91572 -0.0423245 230 230 230
-0.0174909  -0.955187 -0.0599937 212 217 211
 0.0228489   -0.83208 -0.0793018 207 212 216
0.00243683  -0.966541 -0.0356051 203 198 202
-0.00397284    -0.86284   -0.091505 230 234 233
0.0659554  -0.87812 -0.010811 229 234 237
-0.0231384  -0.967356 -0.0596926 218 220 217
-0.0219165  -0.959559  -0.072993 214 219 215
-0.00370361   -0.821591  -0.0835294 203 208 211
 0.0197893   -0.95593 -0.0270936 240 242 241
0.0954638 -0.908288 0.0151886 228 230 229
 0.130578 -0.961239  0.034387 194 198 199
-0.0332722  -0.964849  -0.111939 229 229 231
0.00592915  -0.920081 -0.0622424 217 217 217
0.0479711 -0.897726 -0.027692 206 205 210
 0.0548519  -0.866032 -0.0320993 214 222 225
 0.079372 -0.953738 0.0255954 224 229 232
0.0960092 -0.892686 0.0114347 230 231 233
 0.0268055  -0.915858 -0.0402264 169 168 176
 0.0195609  -0.951807 -0.0293252 236 236 236
 0.0192808    -0.9063 -0.0526137 226 230 229
 0.0298269   -0.85493 -0.0767773 215 174 190
0.00582854   -0.96606 -0.0321559 204 209 205
 0.0748514  -0.840678 -0.0493797 151 156 159
-0.0584604  -0.825599  -0.110007 188 192 193
-0.00939724   -0.823387  -0.0932366 120 119 125
-0.0109625  -0.924283 -0.0772164 205 211 209
0.0900158 -0.960902 0.0287702 230 234 235
0.0887181 -0.948466  0.026252 241 245 246
-0.0325974  -0.965626  -0.108813 192 193 195
 0.0527381  -0.867874 -0.0348847 165 177 191
 0.0595888  -0.948909 0.00715422 228 167 174
 0.0951885  -0.889679 0.00694225 191 192 194
0.00589608  -0.964319 -0.0292374 225 226 228
 0.0828108  -0.836835 -0.0360067 165 167 180
0.00583495  -0.927131 -0.0550622 197 208 200
 0.0405041  -0.904174 -0.0316233 233 237 238
 0.0158168  -0.958154 -0.0288446 227 233 231
0.0846983 -0.915698 0.0115569 207 217 218
 0.0307795  -0.916128 -0.0339913 213 217 218
  0.035093  -0.969291 -0.0110598 233 237 238
-0.0138457  -0.874262  -0.100404 223 225 222
0.0983846 -0.890059 0.0118627 163 170 176
 0.0628501  -0.851133 -0.0357907 183 187 190
 0.0552036  -0.946864 0.00245662 230 164 174
  0.030503  -0.930792 -0.0229684 229 229 227
 -0.010569  -0.903867 -0.0957564 221 222 224
-0.0156885  -0.939493 -0.0683895 202 204 199
-0.028514 -0.931631  -0.11691 233 235 234
-0.0321849  -0.967041  -0.106352 221 223 220
0.00843565  -0.847298 -0.0834632 201 207 207
0.0957317 -0.823906  -0.04217 147 154 160
 0.0145701  -0.917719 -0.0516927 224 224 226
  0.0878453    -0.86132 -0.00565662 195 204 201
   0.09228  -0.832847 -0.0333791 146 160 163
-0.0347106  -0.937454   -0.12625 221 230 227
 0.100152 -0.921273 0.0208217 213 223 225
0.00725001  -0.922397 -0.0595985 200 209 204
0.00896838   -0.92556 -0.0625701 225 229 228
0.00254934  -0.966711  -0.032248 216 218 215
-0.0299982  -0.928933  -0.117183 203 209 205
 0.0512543   -0.91588 -0.0134094 172 128 141
0.00415332  -0.927451 -0.0468662 198 204 200
0.00842899  -0.961732 -0.0324535 226 232 228
0.00183529  -0.859857 -0.0786676 229 235 233
 0.0263132  -0.918772 -0.0380459 205 206 208
 0.127727 -0.929254 0.0256945 162 171 170
 0.0669937  -0.852529 -0.0320695 186 192 190
 0.0229832  -0.921514 -0.0395459 215 213 216
  0.090706   -0.82467 -0.0452932 184 199 202
0.0857439 -0.960995 0.0291959 244 244 244
-0.0127189  -0.938593 -0.0684857 225 230 226
 0.0177011  -0.932641 -0.0400166 207 207 209
 0.0732984  -0.840367 -0.0409567 171 175 178
-0.0322165  -0.958926  -0.111744 205 211 211
 0.0915516  -0.825955 -0.0422163 183 193 195
 -0.010371  -0.967014 -0.0483471 223 157 169
   0.058803   -0.917492 -0.00627634 222 146 158
0.0599199 -0.965256 0.0133353 233 178 183
0.0680525 -0.865644 -0.016735 160 179 175
 0.138263 -0.976166 0.0365972 143 145 144
-0.0231704  -0.949018 -0.0732871 221 228 221
-0.0139438   -0.89724 -0.0993855 227 228 223
-0.0171238  -0.937166 -0.0703934 216 221 217
0.00382744  -0.860802 -0.0832632 217 221 220
 0.0488381  -0.891687 -0.0315464 207 157 168
 0.0162675  -0.916563 -0.0509005 204 210 210
 0.0214634  -0.894291 -0.0598192 215 219 218
0.00971338  -0.822545 -0.0767649 205 209 210
-0.0386023  -0.944317  -0.128105 199 210 206
0.0288738 -0.966519 -0.012032 232 238 238
 0.0190536  -0.937905 -0.0369185 208 208 210
 0.0125356  -0.929723 -0.0460167 188 198 197
-0.0172507  -0.914796  -0.101558 202 146 157
 0.0177242  -0.947876 -0.0353617 220 222 221
 0.0196016  -0.831024 -0.0816854 203 207 206
0.0837768 -0.968042 0.0306322 203 209 209
 0.0422025  -0.864551 -0.0552465 171 132 153
-0.0263901  -0.944877  -0.109991 208 214 212
-0.00355042   -0.941009  -0.0547743 199 204 198
 0.0369387  -0.901498 -0.0333776 214 220 218
 0.0921524  -0.823198 -0.0444665 139 143 142
  0.12089 -0.929938 0.0273038 214 217 224
-0.0330044  -0.970473  -0.105878 218 223 219
 0.0542709  -0.933101 -0.0047617 238 183 188
 0.0606489  -0.944272 0.00665543 220 129 134
-0.0265768  -0.887832  -0.127843 192 203 205
0.00793248  -0.938234 -0.0458016 224 227 220
 0.0121115  -0.938259 -0.0425126 209 209 207
0.00468228  -0.834301 -0.0723264 198 206 208
-0.0119319   -0.87271  -0.100107 186 197 199
 0.0208716  -0.918925 -0.0430488 199 205 201
 0.0862627  -0.835063 -0.0362221 184 193 198
-0.0251661  -0.934324  -0.119365 231 236 230
0.0594475 -0.961626 0.0127535 220 154 166
0.0820298 -0.952032 0.0273088 225 225 227
-0.0148222  -0.942905 -0.0667967 209 210 204
 0.0869502  -0.831376 -0.0387373 128 149 142
 0.114163 -0.963555 0.0366419 179 184 187
-0.0102035  -0.950423 -0.0565161 210 184 185
 0.0187078  -0.896443 -0.0715694 232 233 235
 0.152697 -0.977011 0.0371471 204 209 205
 0.213235 -0.739064 -0.174578 87 93 119
 0.0451773  -0.855102 -0.0530373 222 224 223
 0.107358 -0.970699 0.0324442 231 240 237
 0.0609643  -0.948883 0.00858469 198 126 129
0.0794902 -0.965062 0.0323425 203 212 211
-0.00623643   -0.839767  -0.0898717 208 209 213
 0.117877 -0.896693 0.0192116 173 183 184
 0.0946321   -0.82869 -0.0375346 167 167 169
-0.0245896  -0.970394  -0.062485 202 211 208
 0.0479604  -0.861037 -0.0495882 204 168 182
 0.0648701  -0.857873 -0.0311235 151 162 166
  0.048614  -0.881923 -0.0354297 208 179 184
   0.064015   -0.908657 -0.00814619 238 236 239
0.0606944 -0.957663 0.0119958 205 147 161
 0.0611158  -0.933673 0.00574388 209 153 166
0.0358279 -0.929644 -0.022213 238 242 241
 0.0111488  -0.895678 -0.0868372 210 149 157
 0.128266  -0.96341 0.0383512 167 169 168
 0.0506406  -0.874266 -0.0329112 186 184 185
-0.0205498  -0.862826  -0.141553 224 132 155
 0.0283517  -0.897387 -0.0515895 235 239 240
 0.0349044  -0.926386 -0.0229998 229 229 231
 0.133694  -0.96524 0.0352767 210 211 213
 0.0211674  -0.914836 -0.0457786 162 169 175
 0.145895 -0.974145 0.0353107 131 141 142
-0.0336604  -0.957514 -0.0698932 220 222 219
0.0979473 -0.937851 0.0252305 219 225 225
0.0999937 -0.943928 0.0261865 236 237 239
  0.032379  -0.896343 -0.0442642 179 188 195
-0.0262504  -0.933452  -0.121215 204 216 214
 0.0606746  -0.947351 0.00988518 227 152 157
0.0226445 -0.931785 -0.035108 220 222 221
 0.153789 -0.975033 0.0382262 135 139 142
 0.0729943  -0.851448 -0.0277242 191 206 203
-0.0255453  -0.970134 -0.0744666 189 195 193
 0.0760405  -0.840575 -0.0376111 150 155 158
0.0979833 -0.959198 0.0312763 205 209 212
  0.028741  -0.904322 -0.0453641 223 232 231
 0.0143528  -0.904156 -0.0815103 183 164 166
 0.0263357   -0.86282 -0.0782754 152 117 124
0.0327141  -0.95821 -0.015159 214 223 222
 0.0494812  -0.877705 -0.0328679 230 216 215
  0.0684413   -0.895986 -0.00337068 187 198 200
 0.0353864  -0.890988 -0.0445279 179 193 193
0.0562297 -0.967012 0.0106699 240 163 171
 0.0328975  -0.956459 -0.0162423 209 215 213
 0.0294537  -0.860875 -0.0734163 185 190 193
 0.0465364  -0.851678 -0.0408058 187 201 204
0.0686079 -0.820947  -0.08416 166 169 174
  0.106891  -0.831985 -0.0334479 127 140 146
 0.0218468  -0.929275 -0.0380911 201 205 206
 0.121618 -0.920722 0.0257686 216 220 221
-0.0268428  -0.960105  -0.103999 190 128 139
  0.057135  -0.960375 0.00896263 233 158 163
-0.0351356  -0.863802 -0.0351893 172 145 160
  0.037996  -0.836046 -0.0706794 142 139 150
0.0500171 -0.869731 -0.039229 200 181 185
-0.0224253  -0.933216  -0.103433 186 103 113
 0.0502558  -0.879036 -0.0303295 171 151 160
 0.0233055  -0.873377 -0.0819547 175 102 122
  0.027446  -0.861897 -0.0762625 182 142 151
 0.0244558  -0.938845 -0.0262282 202 211 208
 0.0226425  -0.968951 -0.0200284 212 216 217
0.0954785  -1.00551  -0.13015 222 222 222
 0.141143 -0.720451 0.0221084 242 244 243
 0.235231 -0.832947 -0.136907 42 31 37
-0.105836 -0.648914 0.0254477 69 37 52
-0.0387101  -0.642511  0.0796991 228 201 146
 0.156633 -0.952753 0.0194012 158 163 167
 0.142316  -1.07173 0.0413394 193 206 199
 0.121255 -0.921166 0.0256168 235 235 237
 0.100173  -1.08383 0.0565814 177 178 170
-0.0158289  -0.644055  0.0261025 109 79 71
 0.0320111  -0.882323 -0.0641689 216 216 216
 0.117202 -0.774124 -0.215449 209 213 216
 0.0597124  -0.548252 -0.0937128 95 64 80
 0.015457 -0.825525 -0.080039 201 196 200
-0.0849532  -0.750497 -0.0110172 239 237 240
 0.141683  -1.01724 0.0228671 254 255 255
-0.00107112   -0.744469   0.0995741 252 254 253
0.00212626  -0.695067   0.103189 251 247 246
  1.23089 -0.206279  -1.28225 44 50 40
 0.0746046  -0.848095 -0.0281151 193 198 201
 0.146322  -1.04256 0.0386162 254 254 254
 0.117771    -1.017 0.0399766 254 255 255
0.0766645  -1.09617 0.0580487 179 192 175
  1.08791 -0.189112   -1.5546 28 28 28
  0.29698  -0.67715 -0.167598 136 141 137
 0.145341 -0.932159 0.0173668 213 222 219
 0.103862  -1.02455 0.0422984 255 255 255
0.0559118  -0.76792 -0.124135 213 213 213
 0.116624 -0.757182 -0.190975 203 201 204
 0.0168585  -0.814735 -0.0825383 182 182 182
-0.0479878  -0.759411  0.0148149 243 241 242
 -1.17119 -0.241691  -2.70572 35 28 46
-0.0982735  -0.781122 -0.0481277 189 187 190
0.0626892 -0.993258 0.0191293 231 141 153
 0.0461346   -0.85536 -0.0495874 230 228 233
0.0600664 -0.981395 0.0159603 171 107 123
  1.26267 -0.634979  -2.46437 48 50 39
0.0332211 -0.733941 0.0993682 218 223 227
  0.125491  -0.735531 -0.0132889 205 213 215
 0.0347862  -0.916072 -0.0276029 222 223 225
 0.117362 -0.708894 0.0324366 254 254 255
 0.113084 -0.893966 0.0155452 222 224 223
  0.187226  -0.719175 -0.0153096 123 116 124
  1.15092 -0.206146  -1.23368 30 27 22
   1.1875 -0.202894  -1.30558 40 37 30
-0.0637616  -0.753494  0.0120514 211 206 212
0.0685603 -0.799105 -0.119873 86 90 93
 0.071653 -0.859678 -0.022264 218 218 220
-0.0132842  -0.741779  0.0710335 247 247 247
  0.19709 -0.794048  -0.12082 202 205 212
-0.032484 -0.735662 0.0561171 171 171 173
-0.0780312  -0.827994  -0.118399 169 175 187
 0.111999  -1.08221 0.0582134 150 147 140
  0.161309   -0.86302 -0.0244026 200 201 203
 0.295534 -0.722291  -0.18035 22 20 25
-0.0628424   -0.75841 0.00199885 205 201 198
  1.04166 -0.207025  -1.53572 23 18 14
-0.0306463   -1.01035  -0.094018 187 135 139
-0.0737844  -0.831338  -0.149633 56 44 56
-0.025438 -0.626302 0.0583177 81 42 60
  1.41419 -0.200244  -2.12076 42 40 28
-0.0252963  -0.754638  0.0169044 231 235 238
 0.148353 -0.677046 0.0334792 103 93 81
  0.139205  -0.737584 -0.0119366 131 137 137
  0.082931  -0.608717 -0.0977977 167 143 81
0.00672668  -0.898876 -0.0857744 242 238 239
 0.0632661  -0.879085 -0.0152609 235 234 232
 0.0813487  -0.828126 -0.0516495 173 179 175
 0.0659746  -0.858525 -0.0303824 216 217 219
-0.00189397    -0.79349   -0.073878 170 176 174
 0.0052738  -0.821691 -0.0789185 194 194 192
  -1.1877 -0.220552  -2.85279 40 39 47
  0.183487   -1.07586 -0.0492366 192 204 200
0.167945 -1.06575  0.02443 169 186 180
 0.167315  -1.04575 0.0275073 225 229 228
 0.293975 -0.658575 -0.182806 83 80 71
-0.0333926  -0.756424 0.00966088 132 126 126
 0.219514 -0.770692 -0.123947 167 179 175
-0.0451545  -0.744228  0.0220966 250 248 249
-0.998098 -0.181544  -2.76617 49 27 50
   0.115413   -0.731882 -0.00383484 210 221 225
0.0636918  -1.00208 0.0214448 235 139 151
-0.0709831  -0.646042  0.0666759 117 88 70
0.0466525 -0.880698 -0.038685 195 184 192
   0.164304   -0.730345 -0.00283436 232 237 240
  1.36885 -0.185037  -1.43985 20 19 15
 0.152676  -1.03353 0.0374733 254 255 255
0.0207603  -0.73493  0.112135 253 253 255
  0.22693  -0.75323 -0.130711 129 138 135
  0.117164   -0.81664 -0.0488349 180 179 175
 0.223402 -0.775916  -0.12926 152 157 151
-0.0197344  -0.762284 -0.0637516 170 161 162
-0.842919 -0.267055  -2.59614 27 26 32
-0.0691686  -0.821291  -0.101167 174 179 175
-0.0697557   -0.82159 -0.0980302 173 179 179
-0.0539278  -0.752038  0.0145957 225 219 219
   0.20204   -1.10597 0.00844296 201 206 200
-0.0526384  -0.709973  0.0536039 245 241 242
0.0491758 -0.754668 -0.114588 197 203 203
   0.159498   -0.732357 -0.00261136 173 181 183
-0.0349336  -0.791986 -0.0519718 161 153 151
 -0.0808384   -0.732934 -0.00504019 226 226 228
-0.0797271  -0.733857  0.0020372 216 215 220
-0.0602206  -0.690438  0.0740528 125 106 100
 0.140106  -1.06713 0.0392345 238 240 237
-0.0162639   -0.74035  0.0956134 202 203 207
 0.237258 -0.720281 -0.153997 113 112 107
 0.0682511  -0.863488 -0.0182624 244 245 249
 0.133463 -0.893343 0.0159574 190 196 194
0.00833791  -0.746191  0.0883106 249 250 254
-0.0449556     -0.801  -0.069071 170 168 169
 0.237851 -0.733568 -0.136974 173 182 179
-0.602262 -0.307092 -0.965522 68 52 65
 0.263358 -0.689561  -0.15083 190 204 204
-0.0187931   -1.04678 -0.0425223 233 238 234
-0.0941384  -0.746185  -0.006733 219 215 216
  0.100637  -0.851329 -0.0134789 191 196 192
-0.0736563  -0.741762  0.0111464 245 243 244
 0.153793  -0.70966 0.0279129 149 157 159
-0.0380579    -1.0632 -0.0762387 181 116 124
 0.241671 -0.720067 -0.150513 177 185 187
  0.13671 -0.748575 -0.217802 192 194 191
  0.0658722   -0.875375 -0.00318671 219 220 224
-0.00400355   -0.660852    0.165124 157 134 102
 -0.0854433   -0.751835 -0.00139367 241 241 243
 -0.102453  -0.780297 -0.0441015 186 181 185
 0.0491131  -0.839649 -0.0594933 212 220 222
 0.134051  -0.92502 0.0248705 184 190 186
 0.243073 -0.597384 -0.181846 126 110 94
 0.249292 -0.718172 -0.149507 176 191 188
-0.0212922  -0.747228  0.0378293 169 158 162
 0.0295381  -0.820154 -0.0884506 197 199 194
0.0410002 -0.721947  0.103425 214 216 211
-0.038592 -0.737397 0.0408781 199 196 203
0.0411934 -0.698663 0.0896657 214 209 206
  0.168422  -0.964356 0.00322333 183 193 195
 0.243783 -0.738947 -0.140257 242 247 243
0.0978531 -0.897602 0.0147365 228 232 233
-0.0466892  -0.740019  0.0224679 224 218 220
-0.00253335    -0.77407  -0.0539858 191 195 194
-0.817427 -0.165354  -2.56395 42 42 54
 0.132213   -0.7575 -0.223049 146 145 150
-0.0307496   -1.08622 -0.0515341 231 235 234
 0.143316 -0.734689 -0.204254 158 160 159
  0.177657  -0.734704 -0.0227164 174 190 189
 0.272696 -0.660503 -0.142348 103 99 87
0.0406184 -0.752741 -0.102611 197 199 198
 0.432424 -0.321416 -0.604118 25 7 19
 0.0243922  -0.751992 -0.0670061 162 158 159
 0.130169 -0.712958 0.0223019 239 243 244
 0.19055 -1.07471 0.014735 231 236 232
0.0197279 -0.728957  0.108752 185 176 177
-0.0215891  -0.841966  -0.105313 209 208 213
-0.0480115  -0.730059  0.0630773 222 228 228
-0.00111062   -0.849741  -0.0876302 226 226 228
 0.129637  -1.09367 0.0328408 172 183 167
0.0212783 -0.707159  0.110726 251 252 254
0.0345019 -0.740583  0.100075 245 246 250
-0.0595154  -0.749399  0.0157391 227 228 232
 0.138021 -0.696682 0.0301232 250 251 253
-0.0228644   -1.03416  -0.047343 232 234 233
 0.161232 -0.976133 0.0364848 187 188 180
  0.133568  -0.870833 0.00219318 174 183 180
0.0259157   -0.7088  0.106917 243 241 244
0.0507836 -0.777335 -0.131893 198 196 199
-0.0487411  -0.807628 -0.0732464 180 178 183
 0.267812 -0.741291 -0.158187 126 127 131
   0.12648  -0.830318 -0.0410562 153 165 161
 0.154159 -0.719722 0.0101249 233 238 241
-0.00617776    -1.12097  -0.0189507 232 237 233
 0.0217507  -0.923899 -0.0374134 216 222 220
0.0916031 -0.708993 0.0557271 189 189 187
 -0.0907895   -0.756756 -0.00783843 244 242 243
-0.0856842  -0.746854 0.00108774 230 231 233
  0.108422  -0.830027 -0.0354163 204 210 210
 0.122708 -0.978655 0.0344595 251 253 252
 0.0170437   -1.01145 -0.0144768 251 253 250
 -0.0873658   -0.755509 -0.00196976 209 207 212
0.0553457 -0.722526 0.0969393 208 213 207
 0.157336  -1.10328 0.0364224 207 213 211
-0.0385436   -1.00769  -0.110488 192 197 193
 0.233977 -0.750169 -0.125892 156 171 166
 0.0255587  -0.820167 -0.0859921 185 185 183
-0.0152721  -0.948378 -0.0634486 200 200 200
-0.0247103  -0.783738 -0.0581168 171 165 167
 0.0521947   -0.82946 -0.0755688 194 188 192
0.0405919 -0.736543 0.0943643 237 238 242
 0.0191697  -0.817976 -0.0832604 209 204 208
 0.0192341   -0.81762 -0.0815933 181 187 183
 0.189732 -0.976654 0.0049497 203 212 209
-0.0681189  -0.700615    0.03681 248 246 249
0.0597137 -0.711228 0.0827736 237 233 234
-0.0167044  -0.955654 -0.0592112 201 203 200
 0.246268 -0.616677 0.0583897 43 24 20
-0.0699433  -0.688171  0.0575857 161 133 121
-0.0598418  -0.735253  0.0177337 234 234 236
 0.110293 -0.696683  0.052506 233 234 238
 -0.112038  -0.731428 -0.0476152 212 206 206
-0.0441468  -0.792793 -0.0493572 168 153 158
-0.0415657  -0.733365  0.0664101 235 239 238
-0.016752  -0.85498 -0.102256 221 217 218
0.0555734 -0.957643 0.0068746 242 158 171
-0.0277337  -0.784798 -0.0531946 198 202 205
 0.0889456  -0.851555 -0.0175859 193 193 193
-0.0963828  -0.774304  -0.020088 242 240 241
 0.225859 -0.788241 -0.124322 185 197 197
 0.156824  -1.00879 0.0350039 217 227 229
0.0771514 -0.732353 -0.117932 182 192 191
-0.0479593  -0.803196 -0.0693538 193 187 191
 0.140077 -0.948983 0.0280876 197 197 189
  0.13226 -0.715689 0.0145749 205 211 211
 0.101917 -0.698632 0.0590549 241 242 244
-0.152385 -0.646409 0.0640026 125 95 84
 -0.112091  -0.750012 -0.0384356 199 199 201
-0.0970406  -0.761143 -0.0177143 231 229 230
0.0838426 -0.739984 -0.129936 202 200 205
 0.0611908  -0.815433 -0.0961242 202 200 205
 0.248563 -0.739543  -0.13904 206 214 216
 0.0420444  -0.914946 -0.0233679 230 231 233
  0.094707  -0.843243 -0.0207636 198 197 195
 0.125581  -1.00617 0.0331313 254 254 254
0.0267369 -0.743869   0.10309 230 231 226
  0.111209   -0.81072 -0.0506291 162 162 162
0.220346  -0.7988 -0.12443 185 196 198
 -0.0739437   -0.771859 -0.00717034 232 236 237
  0.18406  -1.10371 0.0144553 196 207 201
 0.252232 -0.688006 -0.155189 189 199 200
-0.0610983   -0.71351   0.052962 229 225 224
 0.0121923  -0.813345 -0.0820283 179 184 190
  0.14346   -1.1004 0.0298092 137 142 138
0.0923481 -0.717559 0.0606274 241 242 244
0.0650291 -0.785242 -0.143597 184 188 189
-0.0669522  -0.792415 -0.0269923 151 138 145
 0.120735 -0.900115 0.0193429 206 205 211
    0.207816     -1.04028 -0.000672836 201 202 188
0.0880545  -0.71843 0.0606845 221 222 224
0.0299322 -0.753075 0.0854929 206 216 218
 0.130955 -0.704884 0.0304811 255 255 255
-0.0904903   -0.79971 -0.0395385 172 173 178
 0.255267 -0.688849 -0.152102 198 203 199
0.0469239 -0.703401 0.0862254 255 255 255
 0.126989 -0.822242 -0.044009 174 180 178
  0.134183   -0.82537 -0.0452607 156 160 161
-0.0472594  -0.750789  0.0188225 248 244 245
-0.0430003   -0.72128  0.0784177 253 253 253
 0.146025  -1.09701 0.0375593 151 166 161
-0.0262556   -0.79161 -0.0567514 179 173 173
-0.0267151  -0.791609  -0.055152 164 166 165
 0.074358  -1.07894 0.0556949 228 234 224
 0.122562 -0.716277 0.0280809 253 253 255
  0.04574 -0.766238 -0.127366 185 184 190
 0.128022 -0.709959 0.0249061 210 210 212
0.00480041  -0.833137 -0.0753202 201 201 199
 0.123783 -0.681794  0.181922 45 0 10
0.0320393 -0.738953 0.0999543 198 202 201
-0.0374182  -0.719263  0.0881433 240 236 237
 0.152107 -0.996455 0.0367977 196 197 199
0.0832309 -0.697617 0.0733498 246 247 249
  0.0934188   -0.859738 -0.00714198 196 197 201
  0.128713  -0.812332 -0.0561554 177 175 176
0.0566206  -1.04396 0.0267382 255 250 250
  0.090563  -0.886604 0.00731625 215 219 220
-0.147329 -0.701985  0.123792 176 155 152
  0.005506  -0.935252 -0.0494175 211 217 213
-0.0701084  -0.739102   0.011841 235 231 230
-0.0402437  -0.809076 -0.0776577 205 205 205
0.0559204 -0.997387 0.0140808 246 242 243
-0.0271244   -0.73305  0.0963722 249 250 254
 0.147264  -1.08494 0.0401226 199 210 204
-0.0182314   -1.03833 -0.0408987 246 246 244
 0.638171 -0.258558 -0.826084 60 57 52
  0.129058  -0.842723 -0.0236295 182 188 186
 0.0326284  -0.533161 -0.0694842 71 43 57
  0.121181  -0.841356 -0.0236426 200 206 206
 0.0979827  -0.834672 -0.0323339 164 169 175
0.0949095 -0.703618  0.054543 218 219 224
-0.0738671  -0.826934    -0.1071 165 169 172
 0.141967 -0.943929 0.0202219 188 193 189
  0.144027  -0.883155 0.00488898 203 206 199
  0.0956388   -0.857405 -0.00849973 184 189 195
  0.120156  -0.851278 -0.0196419 203 203 201
  -0.0819289    -0.753204 -0.000223542 243 238 242
 0.0229511  -0.824431 -0.0819408 200 200 200
 0.0571819  -0.818729 -0.0945527 191 196 192
0.0461261 -0.736772 0.0909031 213 213 213
 0.146292 -0.990076 0.0354443 155 157 156
 0.118126  -1.07058 0.0505223 190 198 187
 0.143294 -0.733764 -0.190077 163 171 173
0.0493688 -0.749935 0.0891997 238 241 248
-0.0175406  -0.945635 -0.0650428 219 213 215
 0.159994 -0.709326 0.0211945 201 206 209
 0.0339864   -0.90916 -0.0341367 212 220 222
   0.174656   -0.720724 -0.00374014 202 211 210
-0.0748463  -0.809587 -0.0846166 180 178 181
 0.208626 -0.804902 -0.115301 159 174 169
0.0577312  -1.04101 0.0268166 247 167 176
-0.0711348  -0.688781 0.00884935 206 204 205
-0.107448 -0.716407 -0.028625 196 187 188
-0.0091932  -0.773733 -0.0695877 172 168 169
  0.15869 -0.716124 0.0144387 184 194 195
 0.144936 -0.735825 0.0018851 208 217 216
  0.100643  -0.814326 -0.0526093 151 146 142
 0.159361 -0.738068 -0.213638 165 176 170
  0.158358   -0.72516 0.00593702 207 215 218
-0.0102993  -0.962855 -0.0495439 227 157 167
0.00492074  -0.940004 -0.0479482 246 246 246
 0.0250935  -0.956387 -0.0225038 237 237 239
-0.0857051  -0.789303 -0.0193077 220 216 217
  -0.0745645    -0.688816 -0.000106627 208 209 204
   0.0930938    -0.873726 -0.000250461 199 205 205
-0.0233624   -1.12418 -0.0336207 236 241 237
 0.131615 -0.957562 0.0340254 199 203 204
 0.100942  -1.11084 0.0616685 195 206 190
  0.159156  -0.927423 0.00266696 181 197 197
-0.0735445  -0.697097  0.0153354 220 214 214
-0.0212926   -1.04382 -0.0452781 217 217 217
 0.122213  -1.00482 0.0348565 235 237 236
-0.0812908  -0.720391 0.00273443 244 240 241
 0.127308 -0.900478 0.0203758 216 217 212
 0.156733 -0.703148 0.0269317 191 197 187
 0.200525 -0.769368 -0.146034 142 146 149
 -0.0730527   -0.783425 -0.00948671 203 193 191
0.00556558  -0.874366 -0.0822568 243 244 246
0.0602275 -0.995299 0.0155349 255 223 233
 0.171777 -0.729806 -0.204431 144 158 158
 0.121859 -0.910081  0.023832 211 223 221
  0.226607   -1.06026 -0.0338037 195 201 197
-0.0466309   -1.06734 -0.0911873 244 249 243
  0.017565   -0.74264 -0.0601388 160 163 154
0.0286671 -0.703288  0.105236 187 188 182
   0.14081  -0.851103 -0.0221181 201 205 206
 0.240783 -0.726909 -0.145739 138 136 139
 0.0104788  -0.819121 -0.0798707 210 210 212
0.0364208 -0.683781  0.100552 155 140 121
-0.0410612  -0.735243  0.0625159 212 211 209
-0.00881983   -0.704817    0.108575 206 203 196
 0.0854681  -0.822971 -0.0577339 202 212 214
-0.0372692   -0.68103  0.0793701 176 157 142
 0.195778 -0.785886 -0.127429 127 126 131
 0.246189 -0.742865 -0.139839 207 212 216
 0.108047  -1.08013 0.0573069 211 218 210
 0.123865  -0.97205 0.0343043 179 184 187
 0.231027 -0.779541 -0.128201 155 167 167
-0.00783535    -1.12861  -0.0191388 189 197 186
-0.00122056   -0.868097  -0.0918545 218 222 223
-0.0878739  -0.798641 -0.0382617 195 195 197
-0.0283848  -0.822241 -0.0939034 160 157 166
 -0.078499  -0.752323 0.00621442 216 215 221
-0.018772 -0.690624  0.109119 133 117 104
-0.0719883  -0.815086 -0.0905698 159 158 164
 0.119439 -0.964531 0.0328956 214 214 212
   0.131424   -0.862981 -0.00016711 185 185 187
 0.168735  -1.03766 0.0289741 215 224 221
-0.0507533  -0.809874 -0.0746092 215 220 216
  0.226669  -0.669448 0.00744418 104 96 83
0.0817907  -1.02296  0.038975 254 254 255
-0.0563313  -0.787788 -0.0223566 130 116 113
-0.00339322   -0.853385   -0.088972 203 203 205
0.168625 -0.73356 -0.18208 160 172 170
-0.0471361    -1.1128 -0.0820902 231 236 232
0.00693593   -1.00542 -0.0262309 230 232 231
 0.157095 -0.723263 -0.187284 169 175 173
 0.184977  -1.10993 0.0133244 219 227 216
 0.183318  -1.05107 0.0213064 238 242 241
 0.0417751  -0.918511 -0.0194284 231 231 233
  0.033766  -0.864151 -0.0632029 219 218 223
-0.0290238  -0.706853  0.0856725 216 214 215
 0.0415083  -0.822211 -0.0875139 210 210 212
-0.839034  -0.25394  -2.62098 78 67 81
-0.0791737  -0.756451 0.00115299 228 224 225
-0.0775409  -0.807488 -0.0765714 164 168 167
 -0.104654  -0.768816 -0.0270562 239 240 242
-0.0458983  -0.719933   0.078437 238 236 237
 0.115005 -0.985956 0.0342428 216 221 217
 0.196733  -1.10055 0.0143758 188 205 197
 0.0551051  -0.876535 -0.0247503 223 227 228
0.0674945 -0.772712 -0.134524 187 191 194
 -0.10844 -0.766553 -0.032585 230 228 229
-0.0217071   -1.02324 -0.0459947 213 211 212
 0.0246632  -0.744909 -0.0654695 174 176 175
 -0.0796555    -0.72254 -0.00193881 242 240 241
 0.109548 -0.897632 0.0164207 197 201 202
 0.0422276  -0.816233 -0.0954218 196 194 197
  0.089516  -0.841666 -0.0263297 187 189 184
 0.0995256  -0.817339 -0.0492605 184 185 187
0.0580793 -0.993951 0.0149491 249 173 185
 0.148567  -1.01952 0.0380047 241 245 244
 0.116278 -0.814247 -0.048961 175 174 180
-0.0383104  -0.834871 -0.0949429 204 205 207
0.0947276 -0.951579 0.0281477 251 253 252
-0.0691916  -0.786131 -0.0127529 149 140 141
  0.105343  -0.875645 0.00753708 235 236 238
0.00889391  -0.856376  -0.078803 229 222 229
 0.430027 -0.324536 -0.608287 70 46 46
 0.0118774  -0.796768 -0.0890574 146 147 149
 0.147317  -0.90435 -0.237012 233 237 238
-0.0599923  -0.689701  -0.200589 243 247 248
 0.082957 -0.700499 -0.258231 206 203 198
   -0.10127   -0.708472 -0.00595937 124 115 108
-0.0242645  -0.696248  -0.225064 198 191 198
-0.0270915  -0.708903  -0.225368 204 195 196
0.0505079 -0.959064 -0.231312 224 224 224
-0.0168519   -0.69288   -0.23116 176 173 182
-0.0249625  -0.701489  -0.227951 182 175 169
-0.0256761  -0.688361  -0.225784 204 201 192
0.00466858  -0.891402  -0.184448 221 204 210
-0.0174119  -0.952042  -0.182793 191 198 191
 0.205265 -0.805831 -0.170492 167 157 158
-0.0391992   -1.05764  -0.163586 207 216 213
-0.0148559   -0.80656   -0.20467 152 160 162
-0.0187829  -0.964621  -0.188088 215 214 212
  -0.16317  -0.680423 -0.0264799 130 123 104
-0.0478068  -0.675759  -0.217308 107 90 82
0.00754285  -0.877435  -0.188701 204 205 200
-0.0551287  -0.686951  -0.199958 207 204 199
-0.0790008  -0.673204  -0.203603 153 145 124
-0.0160744  -0.698898  -0.237042 164 154 152
0.0978268 -0.705641   -0.2655 236 236 236
-0.0171616   -0.68206  -0.233865 203 193 183
 0.061039 -0.988331 -0.242229 230 235 231
-0.0844719  -0.677973  -0.221929 133 121 109
0.0286595 -0.990601 -0.233649 190 191 193
0.0184372 -0.956192 -0.214556 239 222 228
  0.10361 -0.920691 -0.215206 210 216 212
-0.0479014   -1.03521  -0.114372 234 235 237
-0.0411524   -1.01186  -0.119356 234 236 235
-0.00456434   -0.866394   -0.186691 182 190 192
-0.0513428   -0.69794  -0.201762 221 226 229
-0.056345 -0.732533 -0.185935 208 120 132
-0.0584487  -0.746813  -0.183691 253 251 254
-0.0223541  -0.978727  -0.191087 195 201 199
0.00334294  -0.881588  -0.183543 215 194 203
-0.00497338   -0.734143    -0.24756 237 236 234
-0.0194429  -0.970827  -0.189462 205 206 201
0.0286324 -0.993788 -0.234413 226 228 225
0.0490493 -0.708208  -0.26321 221 220 225
-0.0501161   -1.03445  -0.120097 218 224 220
0.0774979 -0.731961 -0.273377 231 227 228
-0.00598449   -0.931227   -0.187049 207 205 206
-0.0162746  -0.868647  -0.164537 221 222 226
0.0169358 -0.661995 -0.214632 107 93 90
0.0226978  -1.02433 -0.231924 226 169 178
0.0312868  -1.05547 -0.236554 242 200 212
-0.0884986  -0.686809  -0.172386 177 182 175
-0.0184239   -0.68806  -0.231505 188 190 187
-0.0463396  -0.747189  -0.188937 225 148 158
 -0.114081  -0.771903 -0.0688489 219 223 226
-0.0143305   -0.68943  -0.232972 220 215 211
0.0227853 -0.999243 -0.228424 239 225 225
 -0.105417    -0.7854 -0.0839806 204 205 209
-0.0149954  -0.696074  -0.233114 163 157 159
-0.0408972   -0.96788  -0.130196 229 233 234
0.0357146 -0.718128 -0.251836 227 227 225
-0.00684334   -0.938028   -0.189353 195 195 193
 0.113948 -0.977692 -0.243467 245 247 246
 -0.117786  -0.760323 -0.0578649 193 199 197
-0.0399488   -1.01359  -0.141077 196 174 177
0.0340619 -0.722008 -0.251413 224 220 221
-0.108311 -0.636571 -0.311897 84 63 62
-0.0279651  -0.687383  -0.225666 200 199 195
 0.106201 -0.740157 -0.285977 223 227 230
-0.0108074  -0.944047  -0.189643 207 212 206
-0.022121 -0.854549  -0.16196 196 194 197
-0.0204216  -0.678754    -0.2327 84 71 81
-0.206464  -0.68597 -0.121732 162 141 122
-0.00854605   -0.958396    -0.19562 208 209 213
0.00618325  -0.879992   -0.18676 175 159 169
 0.130627 -0.867447 -0.207453 218 218 218
-0.045367 -0.686964 -0.207578 218 212 212
-0.0200457  -0.912261  -0.148782 231 227 228
0.0673946 -0.700854 -0.266536 216 216 214
0.00716217  -0.904481  -0.190838 238 234 235
0.0234399  -1.03043  -0.23126 250 200 203
0.0146319  -0.82805 -0.219252 193 206 199
-0.0161327  -0.773019  -0.229539 231 230 236
-0.0926827  -0.684379   -0.16482 233 231 232
-0.0460374  -0.714229  -0.207446 248 249 251
-0.00977436   -0.928507   -0.179927 194 202 205
-0.0477754  -0.710832  -0.204955 204 198 200
-0.114615 -0.666563 -0.272265 140 117 111
0.0594366 -0.723911 -0.265985 174 172 186
 -0.112215  -0.774918 -0.0714847 217 217 219
0.0124349 -0.915529 -0.194765 211 143 156
-0.0437037   -0.68465   -0.21298 172 167 164
-0.0293299   -0.83009  -0.176859 208 206 211
0.0194551 -0.975134 -0.223122 212 176 176
-0.144139 -0.689551 -0.190933 117 91 90
0.0135371 -0.923945 -0.198773 213 172 180
-0.0556619  -0.725605   -0.18796 179 101 114
 0.180322 -0.672636 -0.245092 98 75 93
-0.0208574  -0.964255  -0.185735 188 194 190
-0.0137783  -0.872039   -0.17564 243 243 245
-0.0235687  -0.940009  -0.098073 199 167 172
-0.0201812  -0.944742  -0.161492 211 129 141
-0.0999448  -0.684187   -0.15211 190 182 179
-0.0125018  -0.619914   -0.14687 137 96 76
-0.0178215  -0.955821   -0.18358 209 213 214
0.0103082 -0.952919  -0.20358 206 171 175
 0.105307 -0.932485  -0.22183 235 235 237
0.0291215 -0.688561 -0.244913 220 219 217
0.0830978 -0.944607 -0.229153 224 154 165
 0.277334 -0.758239 -0.178056 57 48 79
 0.105005 -0.884143 -0.193886 206 206 208
0.0961261 -0.989778  -0.24295 225 137 151
0.0602539 -0.962449 -0.240089 227 225 226
  0.26536 -0.698593 -0.229304 137 127 135
 0.101623 -0.876557 -0.187889 212 210 213
0.0949626 -0.711511 -0.262219 181 176 170
 0.117286 -0.903107 -0.205613 175 125 134
0.0232104 -0.697348 -0.244853 212 217 213
0.0664345 -0.718651 -0.266909 160 152 149
 0.199314 -0.792483 -0.165964 173 164 167
 0.213542 -0.808394 -0.173072 215 213 216
-0.00791395   -0.935914   -0.186514 201 199 202
0.0192545 -0.738916 -0.250572 215 210 207
  0.25607 -0.702164 -0.225063 177 170 177
  0.13191 -0.935963 -0.221715 194 154 154
 0.101278 -0.698704 -0.263997 144 119 123
0.0784227  -0.68866 -0.258232 143 113 113
 0.139523 -0.659732  -0.24293 140 114 99
0.0167944 -0.717991  -0.24591 201 199 202
 0.161693 -0.698688 -0.254447 152 134 132
 0.129459 -0.713179 -0.270514 216 210 214
 0.294224 -0.669674 -0.198209 145 138 132
0.0800098 -0.760416 -0.275309 228 222 224
 0.239353 -0.729946 -0.218798 186 189 194
0.0290581 -0.709354 -0.244324 233 231 232
 0.213874 -0.817629 -0.170476 30 35 65
 0.104204   -0.6867 -0.255095 142 118 118
0.0847364 -0.970924 -0.240213 237 239 238
 0.262169 -0.691977 -0.227098 174 170 171
 0.138283 -0.673428 -0.238027 208 202 204
 0.175867  -0.67503 -0.242343 123 114 107
 0.135353 -0.686439 -0.247006 196 192 189
0.0325369 -0.795855 -0.251171 222 223 227
-0.0290159  -0.813965  -0.194308 244 243 248
  0.17323 -0.902315 -0.203332 156 146 144
 0.136179 -0.943091 -0.225664 172 154 152
 0.122231 -0.720816 -0.278872 163 155 153
 0.272958 -0.674606 -0.210404 98 78 90
 0.109096 -0.675805 -0.237815 151 140 136
 0.246582  -0.74437 -0.204486 177 171 171
-0.0317059  -0.700098  -0.219957 238 238 236
0.0764988 -0.680997 -0.244239 142 130 134
 0.116589 -0.878889 -0.188135 165 164 160
0.0120019 -0.726745 -0.249391 241 241 241
 0.177482 -0.830671 -0.164526 144 133 139
0.00930396  -0.702176  -0.249128 230 226 225
-0.0305977  -0.693871  -0.221909 223 219 218
-0.0359036  -0.734132  -0.220777 242 242 242
 0.122482  -0.89807 -0.201853 187 186 182
-0.00360149   -0.951223   -0.195087 242 243 247
-0.00149277   -0.899563    -0.18213 241 240 245
0.0786128 -0.881641 -0.203604 228 230 229
-0.00522267   -0.830692   -0.191732 191 196 199
0.0248229 -0.713378 -0.243626 249 249 251
 0.208617 -0.717687 -0.227995 175 173 174
 0.262201 -0.698554 -0.225991 131 130 135
 0.258069   -0.7034 -0.228233 187 176 182
-0.0198881  -0.941866  -0.155037 187 131 144
 0.212445 -0.786617 -0.181966 217 213 212
0.0558741 -0.969954 -0.234191 242 242 244
0.00919925  -0.708551  -0.251236 173 180 173
   0.2121 -0.769232 -0.178849 187 189 188
0.0894876 -0.930437 -0.219539 228 137 154
 0.234368 -0.659134 -0.197006 72 67 64
 0.141954    -0.948 -0.222166 178 156 159
0.0100892 -0.692692 -0.249991 172 163 158
 0.134714  -0.67972 -0.243365 141 128 112
 0.102194 -0.950317 -0.234736 231 233 232
 0.244676 -0.676903 -0.222721 125 108 127
0.0524708 -0.772068 -0.268975 230 229 234
 0.153417 -0.678812 -0.239165 206 205 201
 0.107596 -0.691337 -0.255662 187 167 166
 0.186528 -0.811483 -0.157109 194 194 192
-0.0200952  -0.699635  -0.232069 178 164 151
0.00425531   -0.87083  -0.190669 230 231 235
 0.108728 -0.871924   -0.1832 180 184 183
 0.093557 -0.888144 -0.198928 164 118 131
 0.138368 -0.695627 -0.251547 196 201 197
 0.108877 -0.939431 -0.227511 240 241 243
 0.201423 -0.781993 -0.170615 167 157 165
-0.0309717  -0.711204  -0.224863 240 238 239
 0.242718 -0.720125 -0.228299 188 187 192
 0.112295 -0.917926 -0.214995 189 188 186
 0.106272 -0.947411  -0.23315 240 240 242
0.0213856  -0.75531 -0.253554 233 234 238
 0.200559 -0.717731 -0.234359 199 196 203
  0.19251 -0.806601 -0.162162 183 178 184
 0.284426 -0.651637 -0.210418 100 88 90
-0.0279694  -0.771368   -0.21884 244 245 247
0.0261778 -0.725907 -0.248095 234 232 233
 0.214708 -0.659172  -0.22541 121 101 102
 0.141734 -0.908084  -0.20256 192 191 186
 0.228826 -0.759426 -0.190918 185 186 190
-0.0265825  -0.791918  -0.207849 241 241 243
  0.23966 -0.750266 -0.196536 179 181 178
0.0345231 -0.696821 -0.243328 173 182 177
  0.23784  -0.71548 -0.225346 184 179 185
0.0938931 -0.910582 -0.210859 220 225 221
 0.253763 -0.739629 -0.208516 149 137 141
0.0226907 -0.702106 -0.243054 223 227 226
  0.10564 -0.890073 -0.199039 204 208 207
0.0225634 -0.718625 -0.244711 222 223 225
0.0878299 -0.892511 -0.203897 186 134 146
0.0820008 -0.920872 -0.217017 219 148 156
-0.0686372  -0.691902   -0.19191 221 222 216
 0.170742 -0.820364 -0.157047 153 153 155
0.0285806 -0.715365 -0.245681 216 211 208
-0.027596 -0.672206 -0.214086 103 92 86
0.0971295 -0.753766 -0.276892 228 228 230
-0.016856 -0.998321 -0.199553 249 251 250
 0.138359 -0.934005 -0.216263 197 202 198
0.0255242 -0.688181 -0.247598 207 201 203
-0.0126478  -0.790383  -0.221643 239 243 244
0.0305382 -0.723892 -0.249009 240 236 233
-0.0536112   -0.73432  -0.187826 210 127 143
-0.0252269  -0.806445  -0.199095 226 227 231
 0.253091  -0.70684 -0.222929 186 183 190
0.0157532 -0.778852 -0.250181 245 244 240
0.0762543 -0.889494 -0.205537 222 223 227
0.0970378 -0.877189 -0.189325 214 220 220
 0.251696 -0.695767  -0.22522 176 171 178
 0.208581 -0.772998 -0.178846 206 206 206
 0.243856 -0.747603 -0.200955 196 200 201
 0.101342   -0.9109 -0.211933 225 229 228
 0.196569 -0.807321 -0.166049 212 212 214
 0.105618 -0.909714  -0.21042 186 188 183
-0.0118505  -0.705323  -0.246822 228 228 228
-0.0214129  -0.670882  -0.273828 146 130 114
-0.022368 -0.794435 -0.205409 179 188 187
-0.002601  -0.69811  -0.25256 196 183 177
 0.111975 -0.926094 -0.219808 223 228 222
0.0334529 -0.714423 -0.248233 228 224 223
 0.281465 -0.710692 -0.213536 185 182 191
0.0222045 -0.937163 -0.208313 253 254 255
 0.217161 -0.768998 -0.180361 178 165 172
  0.22976 -0.780966 -0.177717 224 233 232
 0.286592 -0.661656 -0.193153 152 143 144
 0.238397 -0.743704 -0.199705 221 221 223
0.0837907 -0.946192 -0.228496 239 168 176
0.0397304  -0.71089 -0.251549 152 134 130
-0.056924 -0.816624 -0.172192 235 239 240
 0.110636 -0.731395 -0.286566 226 226 228
-0.0226063   -1.01343  -0.191708 247 251 252
 0.111243 -0.896786 -0.202075 211 216 212
-0.00279351   -0.856265   -0.195175 207 207 207
0.00369578  -0.891122  -0.185144 216 201 208
0.0634207 -0.849506 -0.209142 238 242 241
-0.00509517   -0.922618   -0.182483 209 204 208
 0.106908 -0.896401 -0.201397 188 185 178
-0.0215684   -1.02173  -0.188126 225 226 228
 0.236838 -0.736107 -0.203836 208 206 211
-0.0281749  -0.731922  -0.231108 247 247 247
 0.093841 -0.894602 -0.201246 179 112 121
 0.050259 -0.655207  -0.17457 124 100 96
0.0478354  -0.71697 -0.261697 240 240 242
 0.228076 -0.784188 -0.178397 172 172 174
